ncols        208
nrows        25
xllcorner    473209.9838
yllcorner    4431551.1748
cellsize     50.000000000000
NODATA_value  -9999
-9999 -9999 -9999 -9999 -9999 -9999 -9999 -9999 -9999 -9999 -9999 129.2657318115234375 130.1941986083984375 135.1752777099609375 140.401214599609375 143.03228759765625 147.506378173828125 150.4615631103515625 152.9654083251953125 157.1178131103515625 159.685516357421875 160.77752685546875 161.3174285888671875 159.9660797119140625 143.5706634521484375 123.54102325439453125 112.00687408447265625 103.17388916015625 94.91397857666015625 87.7468719482421875 80.842559814453125 78.68228912353515625 79.09062957763671875 80.23575592041015625 82.67406463623046875 85.58404541015625 87.93573760986328125 89.96537017822265625 96.72985076904296875 110.29344940185546875 125.33628082275390625 133.0789642333984375 145.4449920654296875 156.45074462890625 161.251922607421875 162.8373260498046875 164.546112060546875 166.356842041015625 168.672576904296875 170.6045989990234375 172.386474609375 172.6479949951171875 167.5130767822265625 155.8789825439453125 143.56103515625 134.776336669921875 126.4508209228515625 121.56761932373046875 127.12247467041015625 140.2122802734375 152.013885498046875 157.9065093994140625 157.308563232421875 156.7872314453125 157.0690460205078125 156.8386688232421875 158.6396484375 163.8950347900390625 173.3455810546875 180.4005584716796875 185.790191650390625 189.021514892578125 190.754547119140625 192.2570648193359375 193.8515472412109375 195.086700439453125 195.8008880615234375 195.6802825927734375 195.081207275390625 194.75494384765625 196.0864410400390625 198.218505859375 200.4832611083984375 202.96905517578125 205.1251068115234375 205.3663787841796875 203.28277587890625 199.722991943359375 195.0352325439453125 194.18798828125 194.439361572265625 194.0965423583984375 191.26507568359375 184.9465789794921875 178.3434906005859375 170.461761474609375 162.73211669921875 156.473785400390625 147.8663482666015625 137.7914276123046875 133.3931884765625 131.7201995849609375 136.7265167236328125 142.69921875 144.7357025146484375 143.6595458984375 140.1853179931640625 138.644195556640625 138.7397918701171875 139.319000244140625 135.10186767578125 126.8297119140625 120.65616607666015625 123.639556884765625 130.789154052734375 142.2691497802734375 153.070037841796875 159.8440704345703125 160.858245849609375 157.48175048828125 145.7754058837890625 133.519134521484375 124.75319671630859375 119.1516571044921875 118.90763092041015625 120.195159912109375 126.59557342529296875 133.439117431640625 139.3697662353515625 143.9156341552734375 147.0789794921875 145.5245361328125 141.7056427001953125 142.2205657958984375 146.9576416015625 155.801483154296875 164.9119415283203125 175.5854644775390625 185.34857177734375 197.1001129150390625 207.6883544921875 214.0912628173828125 215.9709014892578125 216.9125213623046875 217.8481292724609375 218.77801513671875 219.609893798828125 219.5697784423828125 218.8409271240234375 218.1083984375 217.1044769287109375 214.8766632080078125 210.6150665283203125 205.970794677734375 201.68426513671875 198.9684906005859375 197.5504150390625 196.1814422607421875 195.1194305419921875 193.78143310546875 192.7699127197265625 191.95355224609375 191.46563720703125 190.982940673828125 190.299346923828125 189.4279937744140625 187.9595489501953125 186.2975311279296875 183.483612060546875 181.6593017578125 182.3739166259765625 184.02471923828125 186.99237060546875 189.2530364990234375 190.03179931640625 190.6091156005859375 192.3677215576171875 194.4091644287109375 194.905181884765625 194.9801025390625 195.072967529296875 195.173370361328125 196.286102294921875 199.9156494140625 204.810455322265625 208.3227996826171875 209.8652801513671875 210.4654693603515625 211.8283538818359375 213.2940826416015625 214.926025390625 216.1414031982421875 216.9951171875 217.63134765625 218.245880126953125 218.48126220703125 218.416290283203125 218.181640625 218.117218017578125 218.6940155029296875 220.017486572265625 221.55389404296875 222.917938232421875 224.25933837890625 225.1573028564453125 225.9022674560546875 226.826507568359375 227.584930419921875
-9999 -9999 -9999 -9999 -9999 -9999 -9999 -9999 -9999 -9999 -9999 -9999 -9999 -9999 -9999 -9999 -9999 149.9502716064453125 151.571441650390625 153.916412353515625 155.2821502685546875 156.6097869873046875 157.8383941650390625 154.9302825927734375 132.1773223876953125 112.95980072021484375 105.20184326171875 97.242431640625 87.6873779296875 80.97060394287109375 77.5852203369140625 77.2347869873046875 78.22626495361328125 79.17882537841796875 80.36214447021484375 83.19001007080078125 86.514068603515625 89.43450164794921875 98.50856781005859375 119.1371917724609375 139.6663360595703125 147.24658203125 153.1646270751953125 158.098907470703125 161.072784423828125 162.5311431884765625 164.3397674560546875 166.2098236083984375 168.545013427734375 170.0276947021484375 170.6345672607421875 168.4635772705078125 159.1822052001953125 147.899169921875 137.27294921875 128.17242431640625 121.0759429931640625 122.19678497314453125 131.719879150390625 147.377044677734375 157.6732940673828125 162.052154541015625 160.6391448974609375 160.245391845703125 161.3150634765625 163.9351348876953125 169.83758544921875 176.3750762939453125 181.931671142578125 185.4602508544921875 188.9430084228515625 190.9343719482421875 192.53546142578125 193.947723388671875 194.8939666748046875 195.4214935302734375 195.9940032958984375 195.7494964599609375 194.6243743896484375 191.6741790771484375 191.354339599609375 193.630767822265625 197.97552490234375 201.5477752685546875 204.570068359375 205.9019012451171875 204.7891387939453125 201.1713714599609375 195.9614410400390625 194.9145660400390625 194.93353271484375 193.6762237548828125 188.5682830810546875 179.7840576171875 169.3579254150390625 158.911376953125 151.18206787109375 143.7390899658203125 134.7329559326171875 126.8297119140625 131.1998748779296875 137.8306884765625 140.7897491455078125 140.85638427734375 140.30908203125 137.162750244140625 132.582244873046875 131.1953277587890625 131.143768310546875 131.829986572265625 130.7877960205078125 125.716552734375 120.465911865234375 120.94774627685546875 124.79085540771484375 133.6165313720703125 142.58709716796875 151.8710479736328125 156.93316650390625 155.12542724609375 145.3495635986328125 132.9075927734375 123.773345947265625 119.70418548583984375 119.53330230712890625 121.41281890869140625 131.2250823974609375 139.73077392578125 145.516815185546875 149.7862548828125 152.7203369140625 151.3131561279296875 148.395965576171875 150.3262481689453125 154.3936004638671875 159.5119476318359375 165.75421142578125 176.6036834716796875 186.592864990234375 196.580596923828125 205.5778045654296875 212.2279052734375 214.7891693115234375 215.8171234130859375 216.71295166015625 217.506866455078125 218.146240234375 218.092193603515625 217.4658203125 216.740386962890625 215.7506561279296875 213.75103759765625 209.5736541748046875 205.4298248291015625 201.5832672119140625 199.086151123046875 197.8214263916015625 196.5652923583984375 195.611480712890625 194.6129913330078125 193.7684478759765625 193.0391845703125 192.5471954345703125 192.1176910400390625 191.313507080078125 190.1843109130859375 188.82464599609375 187.539337158203125 184.4084320068359375 181.2053070068359375 180.8176422119140625 182.7164306640625 186.0362091064453125 188.7449798583984375 189.9573211669921875 190.5997467041015625 192.400726318359375 194.7600860595703125 195.438995361328125 195.039306640625 194.9822845458984375 194.9960174560546875 195.9791259765625 200.164398193359375 206.1243896484375 209.681976318359375 210.0591278076171875 210.49737548828125 211.693450927734375 213.010650634765625 214.5493621826171875 215.64105224609375 216.4524993896484375 217.207855224609375 217.7966461181640625 218.0035247802734375 218.03082275390625 218.0702362060546875 218.263916015625 218.8448944091796875 219.8676910400390625 221.255126953125 222.6504974365234375 223.94061279296875 224.8396453857421875 225.462249755859375 226.4597930908203125 227.2695159912109375
-9999 -9999 -9999 -9999 -9999 -9999 -9999 -9999 -9999 -9999 -9999 -9999 -9999 -9999 -9999 -9999 -9999 -9999 152.56915283203125 152.6436004638671875 153.098541259765625 153.72943115234375 153.798553466796875 149.1100616455078125 127.25672149658203125 111.59351348876953125 101.6945343017578125 92.7407379150390625 83.11278533935546875 78.69808197021484375 77.4506072998046875 77.2137908935546875 77.907867431640625 78.85088348388671875 79.68772125244140625 81.80034637451171875 86.2685089111328125 91.04058837890625 103.439788818359375 126.01885223388671875 147.5594940185546875 152.3526458740234375 155.7033843994140625 158.729156494140625 160.479827880859375 161.9145355224609375 163.9550323486328125 165.938568115234375 168.318756103515625 169.7004241943359375 166.982269287109375 157.6821136474609375 145.039093017578125 135.527496337890625 127.15096282958984375 121.3751068115234375 120.2728118896484375 125.02405548095703125 136.2555999755859375 151.8397979736328125 159.5829315185546875 161.9613494873046875 160.507049560546875 160.554840087890625 162.2424163818359375 165.7292022705078125 171.6464385986328125 179.019989013671875 185.99267578125 189.7028350830078125 191.7088775634765625 192.8347320556640625 193.783721923828125 194.3062744140625 194.810760498046875 195.0204315185546875 194.5013885498046875 192.353790283203125 190.97027587890625 186.0509033203125 186.6873016357421875 193.2509307861328125 198.536041259765625 201.6599578857421875 204.9424285888671875 206.768585205078125 205.034698486328125 200.982208251953125 196.32415771484375 195.1387786865234375 195.0482940673828125 193.0342864990234375 186.6792144775390625 176.5624237060546875 165.0340423583984375 150.88336181640625 139.9766845703125 132.2237091064453125 126.010223388671875 122.802154541015625 132.88421630859375 141.97283935546875 143.275299072265625 139.9405670166015625 136.1715545654296875 132.4013671875 128.8917083740234375 126.99289703369140625 126.080169677734375 127.66654205322265625 129.448974609375 125.87856292724609375 121.0001220703125 120.096710205078125 120.4220428466796875 123.8843994140625 131.1143646240234375 142.389923095703125 149.2286376953125 150.2295379638671875 144.163726806640625 133.253143310546875 123.03586578369140625 119.14130401611328125 119.1246337890625 122.77492523193359375 134.9983978271484375 144.316986083984375 150.6608734130859375 155.462066650390625 158.3694915771484375 157.6959686279296875 156.863525390625 160.3367156982421875 165.5055084228515625 171.60968017578125 175.9822540283203125 181.9406890869140625 189.55535888671875 197.1632080078125 204.4829254150390625 210.7349090576171875 213.197021484375 214.6531829833984375 215.6114501953125 216.23052978515625 216.63116455078125 216.5807037353515625 216.1427764892578125 215.4410552978515625 214.0897064208984375 211.7675933837890625 208.69622802734375 205.2497100830078125 201.72479248046875 199.1869659423828125 197.939178466796875 196.70947265625 195.7719268798828125 194.8948211669921875 194.2034149169921875 193.5900726318359375 193.1985321044921875 192.9599151611328125 192.3671417236328125 191.293548583984375 190.24267578125 189.6195526123046875 187.0617828369140625 182.9668426513671875 180.2371063232421875 181.5798492431640625 185.4632110595703125 188.7868194580078125 190.2031707763671875 190.7519683837890625 192.283538818359375 194.280364990234375 194.8559417724609375 194.6439056396484375 194.690826416015625 194.880035400390625 196.0303802490234375 200.38409423828125 205.9922637939453125 209.5238800048828125 210.0180511474609375 210.354583740234375 211.4866485595703125 212.714599609375 214.1954193115234375 215.2003326416015625 216.0025634765625 216.78765869140625 217.3931884765625 217.5581512451171875 217.593231201171875 217.756317138671875 218.1244049072265625 218.872314453125 219.8911895751953125 221.14288330078125 222.5354461669921875 223.89373779296875 224.8914794921875 225.4839630126953125 226.3515472412109375 227.112762451171875
-9999 -9999 -9999 -9999 -9999 -9999 -9999 -9999 -9999 -9999 -9999 -9999 -9999 -9999 -9999 -9999 -9999 -9999 -9999 -9999 -9999 152.27099609375 146.1795501708984375 142.27685546875 124.66260528564453125 109.06943511962890625 96.07064056396484375 86.113922119140625 80.37660980224609375 78.88238525390625 78.22141265869140625 77.90268707275390625 78.1096954345703125 78.7675933837890625 79.60483551025390625 81.83621978759765625 87.63983917236328125 92.815948486328125 107.03224945068359375 131.0464630126953125 149.9409027099609375 152.8306427001953125 155.6839447021484375 157.849090576171875 159.597137451171875 161.1267242431640625 163.3337249755859375 165.1905975341796875 166.8131103515625 166.37957763671875 158.6486358642578125 144.4420166015625 131.33489990234375 122.90013885498046875 117.31378173828125 118.77700042724609375 121.10894012451171875 129.326202392578125 141.12567138671875 153.4763946533203125 158.5195465087890625 160.0251922607421875 160.04296875 161.0254974365234375 164.26568603515625 167.91278076171875 175.5382843017578125 184.8279266357421875 191.004730224609375 192.5657196044921875 193.758880615234375 193.9510040283203125 193.6427001953125 193.1799163818359375 193.1952056884765625 190.316131591796875 185.8538818359375 182.0733489990234375 181.2949066162109375 179.3307037353515625 185.0225830078125 195.279998779296875 200.717559814453125 203.31329345703125 204.39068603515625 204.1775054931640625 201.656585693359375 198.5241546630859375 195.498138427734375 195.849884033203125 195.302947998046875 190.7187957763671875 183.131134033203125 172.2671356201171875 161.1411285400390625 148.2862701416015625 136.53094482421875 124.10225677490234375 120.3227386474609375 121.93526458740234375 130.564300537109375 138.4249420166015625 138.6924896240234375 134.8231658935546875 130.6977691650390625 129.328887939453125 127.67731475830078125 124.881744384765625 122.36504364013671875 124.6874237060546875 128.6694488525390625 127.77860260009765625 125.00237274169921875 123.03759002685546875 120.8160400390625 119.62590789794921875 121.16402435302734375 131.4682464599609375 139.6730194091796875 142.8487091064453125 140.41094970703125 132.651702880859375 122.03612518310546875 116.831390380859375 116.634185791015625 122.09789276123046875 135.0714111328125 145.354827880859375 153.3502197265625 160.00421142578125 164.13275146484375 165.1402587890625 166.0965728759765625 170.356658935546875 175.0286102294921875 181.0013275146484375 185.855499267578125 189.76678466796875 193.7883758544921875 199.1575469970703125 204.695526123046875 209.6298980712890625 211.7259368896484375 213.07513427734375 213.9572296142578125 214.48089599609375 214.891387939453125 214.91314697265625 214.582733154296875 213.7717742919921875 212.3408203125 210.41107177734375 208.1652984619140625 205.316497802734375 201.9154815673828125 199.2061614990234375 197.8995513916015625 196.6449432373046875 195.6784210205078125 194.7767333984375 194.1925201416015625 193.6798248291015625 193.3029632568359375 193.0285186767578125 192.688690185546875 192.0234527587890625 190.9247283935546875 190.0989227294921875 187.8427276611328125 183.8188018798828125 180.4217071533203125 181.3392181396484375 185.697235107421875 189.9039764404296875 191.0849456787109375 190.6823272705078125 191.5490875244140625 192.8553466796875 193.341064453125 193.55059814453125 193.9194488525390625 194.456695556640625 196.0360260009765625 200.1609954833984375 205.197265625 208.488067626953125 209.6939239501953125 210.10516357421875 211.0978240966796875 212.380828857421875 213.846832275390625 214.8971099853515625 215.6988677978515625 216.42877197265625 217.0139007568359375 217.0712127685546875 217.0627288818359375 217.31048583984375 217.831085205078125 218.7379608154296875 219.7962493896484375 221.0595855712890625 222.51177978515625 223.963348388671875 225.115203857421875 225.7490081787109375 226.4306488037109375 227.0796356201171875
-9999 -9999 -9999 -9999 -9999 -9999 -9999 -9999 -9999 -9999 -9999 -9999 -9999 -9999 -9999 -9999 -9999 -9999 -9999 -9999 -9999 -9999 124.6814117431640625 126.2715911865234375 115.65477752685546875 98.73876190185546875 85.07317352294921875 80.21912384033203125 79.58769989013671875 79.15355682373046875 78.824859619140625 78.7316436767578125 78.90814208984375 79.299560546875 80.66351318359375 85.008575439453125 89.861602783203125 92.68402862548828125 107.39006805419921875 129.814971923828125 148.4423675537109375 151.534881591796875 153.5635528564453125 155.8661651611328125 158.7640838623046875 160.745208740234375 162.5952301025390625 163.9557037353515625 161.5431060791015625 151.440582275390625 139.585540771484375 127.54805755615234375 116.59540557861328125 112.57167816162109375 113.2266693115234375 119.4676666259765625 125.3147125244140625 136.47747802734375 148.3631439208984375 156.351043701171875 159.0411834716796875 160.0532073974609375 162.171875 166.89312744140625 173.4432373046875 179.2279052734375 187.046417236328125 191.4545440673828125 193.6424713134765625 194.3784332275390625 194.7186279296875 194.2357177734375 192.967529296875 191.2995452880859375 187.543182373046875 177.994873046875 170.1522216796875 167.2396697998046875 169.8621826171875 173.4626617431640625 183.8350982666015625 195.845367431640625 201.2531890869140625 202.895111083984375 202.34710693359375 201.429534912109375 198.8289031982421875 195.5296783447265625 192.6554718017578125 193.4578399658203125 192.4001922607421875 187.508880615234375 180.013946533203125 168.8528289794921875 158.6649017333984375 148.5445404052734375 137.6168975830078125 124.05431365966796875 118.2364044189453125 119.77008819580078125 126.652313232421875 131.1673736572265625 130.4495391845703125 127.97374725341796875 126.2656097412109375 126.5359649658203125 126.5349578857421875 123.67041015625 120.498626708984375 121.87213134765625 126.280731201171875 128.887725830078125 130.636444091796875 130.2108154296875 126.38283538818359375 119.6792755126953125 114.3911590576171875 117.74163055419921875 126.01451873779296875 132.2212677001953125 133.025360107421875 128.6605987548828125 120.3369903564453125 113.39521026611328125 113.5405120849609375 121.34432220458984375 132.8686370849609375 143.0379180908203125 153.15509033203125 162.2792510986328125 169.971954345703125 174.021087646484375 176.90411376953125 181.3404083251953125 185.9352874755859375 190.4814605712890625 194.3217010498046875 197.4127960205078125 199.6450958251953125 202.6271820068359375 205.6132659912109375 208.4908599853515625 210.222320556640625 211.3501129150390625 212.0146026611328125 212.4329376220703125 212.9585723876953125 213.1144866943359375 212.851776123046875 212.06341552734375 210.81317138671875 209.2337188720703125 207.5461273193359375 205.448272705078125 202.2408447265625 199.2488250732421875 197.8340606689453125 196.5030364990234375 195.5194549560546875 194.6826629638671875 194.1578521728515625 193.6843414306640625 193.325714111328125 193.0525054931640625 192.792388916015625 192.4300994873046875 191.4281005859375 190.240020751953125 187.5743408203125 183.4194793701171875 180.2791900634765625 181.850494384765625 185.7960205078125 189.211395263671875 190.3432769775390625 190.1047515869140625 190.469757080078125 191.1905975341796875 191.623291015625 192.0643157958984375 192.83673095703125 193.865753173828125 195.9319305419921875 199.766143798828125 203.8991241455078125 206.5931243896484375 208.678375244140625 209.740997314453125 210.7165374755859375 212.1499176025390625 213.7130584716796875 214.7910919189453125 215.444183349609375 215.9593353271484375 216.311370849609375 216.2714996337890625 216.2471466064453125 216.640625 217.3997802734375 218.526397705078125 219.64886474609375 221.0086822509765625 222.5458984375 223.9821624755859375 225.1160430908203125 225.7930450439453125 226.4407196044921875 226.971099853515625
-9999 -9999 -9999 -9999 -9999 -9999 -9999 -9999 -9999 -9999 -9999 -9999 -9999 -9999 -9999 -9999 -9999 -9999 -9999 -9999 -9999 99.9667205810546875 108.84662628173828125 111.47763824462890625 104.3390045166015625 87.99013519287109375 78.6023101806640625 78.84905242919921875 79.3673248291015625 79.23239898681640625 79.09654998779296875 79.408843994140625 80.34279632568359375 81.743438720703125 83.4034881591796875 85.4810791015625 87.84665679931640625 90.77925872802734375 101.9835357666015625 118.36231231689453125 134.305450439453125 141.606536865234375 148.129913330078125 153.0283966064453125 157.387847900390625 160.2488250732421875 160.677001953125 158.3037567138671875 147.024261474609375 133.1770172119140625 121.63636016845703125 114.31327056884765625 110.3502349853515625 112.25536346435546875 118.2978973388671875 127.33913421630859375 135.0086212158203125 147.0284423828125 157.8990020751953125 162.01171875 163.0962371826171875 166.194488525390625 172.453643798828125 178.92437744140625 184.4786834716796875 188.526947021484375 192.0341339111328125 193.8621368408203125 194.9099578857421875 195.0011138916015625 194.981597900390625 194.2479705810546875 192.2314605712890625 188.58746337890625 181.0507659912109375 167.8872528076171875 157.9822235107421875 157.4802703857421875 163.4701690673828125 174.84228515625 187.12786865234375 197.59649658203125 200.0805206298828125 199.9610137939453125 199.7029876708984375 199.86083984375 198.7274322509765625 195.1220855712890625 189.352783203125 185.4350128173828125 182.854461669921875 179.434326171875 174.22821044921875 163.127227783203125 154.3415985107421875 148.3608551025390625 138.4583740234375 124.7273406982421875 115.08785247802734375 115.8134002685546875 121.48113250732421875 122.58358001708984375 121.0345916748046875 120.38231658935546875 121.5590667724609375 122.8760528564453125 123.3740997314453125 121.66350555419921875 119.98004913330078125 121.367034912109375 126.41197967529296875 130.81982421875 134.9540252685546875 135.9880523681640625 133.0185394287109375 124.43564605712890625 116.69387054443359375 111.59903717041015625 115.424652099609375 123.5005950927734375 124.741973876953125 120.945281982421875 115.6730194091796875 110.94724273681640625 114.31055450439453125 122.87332916259765625 134.100250244140625 144.0670318603515625 154.573638916015625 165.5846405029296875 176.1211090087890625 183.00634765625 187.82867431640625 193.3001861572265625 196.8146820068359375 199.4621124267578125 201.2264556884765625 202.302886962890625 203.6230010986328125 204.7882080078125 205.648223876953125 207.182861328125 208.604583740234375 209.4041748046875 209.70587158203125 210.0899200439453125 210.8390655517578125 211.15374755859375 210.9282379150390625 210.202362060546875 209.1210174560546875 207.82659912109375 206.548797607421875 205.155548095703125 202.4781494140625 199.5626983642578125 198.1056060791015625 196.51739501953125 195.4008026123046875 194.6156005859375 194.0897064208984375 193.632232666015625 193.3605194091796875 193.1689453125 192.9311370849609375 192.557647705078125 191.7291107177734375 190.770538330078125 188.5936126708984375 183.5921783447265625 180.2408905029296875 181.78021240234375 184.413055419921875 186.8054046630859375 188.241668701171875 188.9594573974609375 189.4396209716796875 189.925994873046875 190.2462310791015625 190.5828857421875 191.8333740234375 193.7377166748046875 196.0732879638671875 199.25860595703125 202.7072601318359375 205.379669189453125 207.90301513671875 209.484130859375 210.8682403564453125 212.3419952392578125 213.8312225341796875 214.7946624755859375 215.1964111328125 215.466827392578125 215.5982513427734375 215.4406890869140625 215.3453826904296875 215.94415283203125 217.1151123046875 218.563140869140625 219.8462982177734375 221.297149658203125 222.776580810546875 224.0853424072265625 225.09051513671875 225.696990966796875 226.283111572265625 226.7133941650390625
-9999 -9999 -9999 -9999 -9999 -9999 -9999 -9999 -9999 -9999 -9999 -9999 -9999 -9999 -9999 -9999 -9999 -9999 -9999 -9999 -9999 89.9223175048828125 93.30600738525390625 93.9779510498046875 87.2952423095703125 75.70746612548828125 73.6457977294921875 78.465576171875 79.388702392578125 79.39855194091796875 79.7324981689453125 81.2963409423828125 83.7942047119140625 86.8329620361328125 88.161590576171875 86.8780059814453125 86.7237396240234375 88.954254150390625 92.20168304443359375 98.967071533203125 107.5541534423828125 116.6896209716796875 128.727691650390625 142.9449462890625 152.853424072265625 153.9247894287109375 146.7662200927734375 139.4600677490234375 124.80593109130859375 114.9489898681640625 110.90456390380859375 110.175262451171875 111.5790557861328125 121.4732513427734375 133.47003173828125 144.184906005859375 153.0120086669921875 164.576202392578125 171.14886474609375 173.7845001220703125 176.1957855224609375 179.5245361328125 184.0912628173828125 188.480316162109375 190.6247711181640625 192.5130157470703125 194.647491455078125 195.4344024658203125 195.23028564453125 195.0125274658203125 194.4958343505859375 193.067718505859375 190.48785400390625 182.7516326904296875 172.7537841796875 158.0889739990234375 150.610565185546875 159.798431396484375 172.1284637451171875 186.0137176513671875 194.555816650390625 199.4178009033203125 197.273681640625 195.0114898681640625 194.6810760498046875 195.750457763671875 197.0814971923828125 195.004119873046875 187.98492431640625 177.0383148193359375 167.4739532470703125 163.6946563720703125 161.53216552734375 153.45489501953125 145.7740936279296875 142.777008056640625 136.7270355224609375 125.0172576904296875 114.30535888671875 111.6254425048828125 114.8452301025390625 115.25066375732421875 113.8456878662109375 114.76033782958984375 118.54772186279296875 120.558197021484375 120.65329742431640625 118.9972076416015625 118.24669647216796875 121.56854248046875 128.237640380859375 133.8104400634765625 138.9092864990234375 140.756805419921875 138.38250732421875 129.02777099609375 120.2113800048828125 112.339630126953125 110.27924346923828125 112.676422119140625 112.4430694580078125 111.2226409912109375 110.92862701416015625 112.2860107421875 117.74861907958984375 125.30059051513671875 135.85662841796875 145.242431640625 155.2205963134765625 167.0690460205078125 181.3527069091796875 191.9053192138671875 198.19451904296875 202.5203094482421875 204.111419677734375 204.7161102294921875 204.6717071533203125 204.3083343505859375 204.1687774658203125 204.2847900390625 204.7373809814453125 205.568939208984375 206.3952484130859375 207.07757568359375 207.755706787109375 208.4990234375 209.5527191162109375 209.9300384521484375 209.4838104248046875 208.6334228515625 207.61346435546875 206.4857330322265625 205.5055999755859375 204.7209625244140625 203.0064239501953125 200.23919677734375 198.5144195556640625 196.73468017578125 195.3942413330078125 194.562744140625 194.0232391357421875 193.583221435546875 193.446136474609375 193.3556976318359375 193.10302734375 192.6674346923828125 191.8735198974609375 191.0522918701171875 189.8409271240234375 185.0875244140625 180.3784637451171875 181.021636962890625 182.7855072021484375 184.568115234375 186.1487884521484375 187.7812652587890625 188.6862335205078125 189.3350982666015625 189.7030792236328125 189.98956298828125 191.3866424560546875 194.0893707275390625 196.3314361572265625 198.710418701171875 201.8139801025390625 204.73162841796875 207.6869659423828125 209.6676483154296875 211.2393035888671875 212.5161895751953125 213.73944091796875 214.5989990234375 215.01287841796875 215.0787811279296875 215.082183837890625 215.022247314453125 215.07537841796875 215.98577880859375 217.378326416015625 218.987518310546875 220.35540771484375 221.7894439697265625 223.1441192626953125 224.2505950927734375 225.071502685546875 225.56121826171875 226.053009033203125 226.4356689453125
-9999 -9999 -9999 -9999 -9999 -9999 -9999 -9999 -9999 -9999 -9999 -9999 -9999 -9999 -9999 -9999 -9999 -9999 -9999 -9999 -9999 81.404449462890625 80.125732421875 77.5895233154296875 73.61278533935546875 70.917816162109375 70.40239715576171875 80.217498779296875 80.584381103515625 81.2746124267578125 82.9352264404296875 85.075286865234375 87.277801513671875 89.36673736572265625 90.1952972412109375 89.696044921875 89.768341064453125 90.136444091796875 90.04376983642578125 91.043701171875 94.8113861083984375 103.3437042236328125 113.5599212646484375 123.71026611328125 133.72650146484375 131.820892333984375 123.80016326904296875 117.1506500244140625 109.05939483642578125 108.62143707275390625 110.25643157958984375 112.689666748046875 120.56168365478515625 134.5693511962890625 147.050201416015625 158.437255859375 167.00897216796875 173.9067535400390625 177.731201171875 180.3822174072265625 182.3430633544921875 184.7058563232421875 188.11810302734375 190.43255615234375 191.9775848388671875 193.898712158203125 195.5740203857421875 195.862579345703125 195.39111328125 194.898834228515625 193.649383544921875 191.9119110107421875 187.9968109130859375 176.3038177490234375 163.48028564453125 147.9301605224609375 145.19757080078125 161.3873138427734375 175.3673248291015625 190.1214599609375 197.9081268310546875 199.289031982421875 193.2749176025390625 189.503692626953125 188.139251708984375 188.3252105712890625 189.1287078857421875 190.2253570556640625 187.284881591796875 175.5525054931640625 159.8069915771484375 150.0034942626953125 145.896392822265625 141.903594970703125 136.3856201171875 133.7917938232421875 130.2158203125 122.1259307861328125 113.8865203857421875 109.7167816162109375 109.303314208984375 109.13274383544921875 109.0324859619140625 110.2117767333984375 114.8474273681640625 118.34870147705078125 118.9059295654296875 115.71909332275390625 114.386627197265625 120.49538421630859375 127.97643280029296875 134.329071044921875 139.5472259521484375 140.9566192626953125 138.0494232177734375 129.5553131103515625 120.21590423583984375 110.98496246337890625 107.10677337646484375 108.1133880615234375 109.8913116455078125 110.37862396240234375 112.2116241455078125 115.657135009765625 121.021392822265625 127.0811004638671875 135.9667510986328125 144.692535400390625 154.012115478515625 164.6293182373046875 178.743682861328125 191.3325347900390625 198.5165863037109375 202.749481201171875 204.9052581787109375 205.927337646484375 205.297454833984375 203.60870361328125 202.547027587890625 202.400146484375 202.93707275390625 203.7245025634765625 204.4484710693359375 204.973907470703125 205.76708984375 206.7637939453125 207.8471221923828125 208.24127197265625 207.7589874267578125 206.812255859375 205.8056640625 205.0225067138671875 204.50042724609375 204.0137786865234375 203.1188507080078125 200.87872314453125 198.957427978515625 197.022735595703125 195.5650787353515625 194.6046905517578125 194.1120452880859375 193.798126220703125 193.7553253173828125 193.7235565185546875 193.402679443359375 192.8552093505859375 191.97509765625 191.15484619140625 190.148284912109375 186.5514373779296875 181.4379730224609375 180.285614013671875 181.0893096923828125 182.7210845947265625 184.8588409423828125 186.901824951171875 188.0309906005859375 188.92486572265625 189.4575042724609375 189.9388580322265625 191.6714630126953125 194.57781982421875 196.698577880859375 198.7315216064453125 201.817169189453125 205.1058349609375 208.5613250732421875 210.2700653076171875 211.369171142578125 212.3524932861328125 213.414276123046875 214.3710479736328125 214.9622802734375 214.980255126953125 214.9848480224609375 214.9969482421875 215.0996856689453125 216.2208709716796875 217.7829742431640625 219.5586090087890625 220.8805694580078125 222.25311279296875 223.5229034423828125 224.5418701171875 225.0929718017578125 225.42626953125 225.816436767578125 226.1595916748046875
-9999 -9999 -9999 -9999 -9999 -9999 -9999 -9999 -9999 -9999 -9999 -9999 -9999 -9999 -9999 -9999 -9999 -9999 -9999 -9999 -9999 72.9938812255859375 70.9234619140625 70.5161590576171875 70.4163360595703125 70.2819976806640625 -9999 82.67829132080078125 84.96657562255859375 86.845855712890625 89.14842987060546875 91.72182464599609375 94.41207122802734375 95.44854736328125 96.20977783203125 97.0453338623046875 97.49826812744140625 95.89166259765625 93.43564605712890625 93.46308135986328125 91.79326629638671875 96.7027130126953125 104.21014404296875 105.45262908935546875 107.87436676025390625 108.30451202392578125 108.116455078125 104.68569183349609375 102.74199676513671875 108.13710784912109375 115.71343231201171875 124.0950469970703125 137.1501312255859375 151.5142822265625 163.05364990234375 168.959686279296875 171.6719970703125 176.940826416015625 180.2861785888671875 182.190460205078125 184.7713775634765625 187.6322479248046875 189.2456512451171875 190.2424163818359375 191.5344085693359375 193.2138519287109375 194.9806365966796875 195.400238037109375 195.2140960693359375 194.60125732421875 192.8183441162109375 190.46673583984375 182.2412872314453125 166.71612548828125 151.0218505859375 136.7256011962890625 140.3107147216796875 158.4382171630859375 172.033782958984375 187.5999603271484375 195.0981292724609375 196.39111328125 189.0351409912109375 182.2421875 178.45709228515625 177.25531005859375 178.5600433349609375 181.9665374755859375 182.3388214111328125 174.2385406494140625 160.467620849609375 147.8776092529296875 137.529052734375 132.2813873291015625 128.4665374755859375 124.87635040283203125 122.38690948486328125 117.78725433349609375 112.92645263671875 108.07009124755859375 105.15670013427734375 104.93862152099609375 105.9747314453125 107.3585968017578125 109.47347259521484375 111.3391571044921875 112.47855377197265625 110.9585418701171875 110.9596405029296875 117.433319091796875 124.938720703125 130.862091064453125 134.8179931640625 135.219970703125 131.7414703369140625 125.3388519287109375 117.6869659423828125 108.095733642578125 104.12813568115234375 106.8272247314453125 109.65776824951171875 110.66811370849609375 113.0053253173828125 116.6222991943359375 121.6062164306640625 126.6772308349609375 133.371673583984375 141.550079345703125 150.9228363037109375 160.336761474609375 171.6790618896484375 184.4102630615234375 193.7747802734375 199.0277862548828125 203.7082366943359375 205.5811309814453125 203.8039398193359375 201.016571044921875 199.9637603759765625 199.9727935791015625 200.5276336669921875 201.4592437744140625 202.457366943359375 203.3356781005859375 204.3447113037109375 205.2790985107421875 206.19561767578125 206.5419769287109375 206.2591400146484375 205.352325439453125 204.4773406982421875 204.068084716796875 203.7550506591796875 203.301300048828125 202.5390777587890625 200.98876953125 199.3015289306640625 196.9323272705078125 195.4218902587890625 194.7173004150390625 194.3912506103515625 194.1955413818359375 194.14263916015625 194.1255035400390625 193.6973114013671875 192.9715576171875 191.9824371337890625 191.1437530517578125 190.0719757080078125 186.91839599609375 182.4190673828125 180.231048583984375 180.4047698974609375 182.4285736083984375 184.681976318359375 186.616546630859375 187.6951141357421875 188.614898681640625 189.342010498046875 190.056060791015625 192.2307586669921875 195.4010009765625 197.5972137451171875 199.4720306396484375 202.631103515625 206.0841064453125 209.399322509765625 210.4770355224609375 211.32757568359375 212.15728759765625 213.101898193359375 214.01214599609375 214.592987060546875 214.6665191650390625 214.7537384033203125 214.8977813720703125 215.06634521484375 216.2037200927734375 217.937469482421875 219.9051666259765625 221.287200927734375 222.6942596435546875 224.0053253173828125 224.8783111572265625 225.1141510009765625 225.323516845703125 225.6167755126953125 225.881500244140625
-9999 -9999 -9999 -9999 -9999 -9999 -9999 -9999 -9999 -9999 -9999 -9999 -9999 -9999 -9999 -9999 -9999 -9999 -9999 -9999 -9999 -9999 70.81273651123046875 71.1580657958984375 71.68300628662109375 -9999 -9999 85.1943359375 90.6708831787109375 95.2296600341796875 99.90799713134765625 103.2012939453125 105.71759033203125 106.9721832275390625 107.63060760498046875 107.7168731689453125 107.48244476318359375 106.5255126953125 105.4903564453125 105.0038604736328125 98.4530487060546875 95.04193115234375 97.84265899658203125 97.79045867919921875 98.4109344482421875 99.9539947509765625 100.67394256591796875 102.2079010009765625 108.42461395263671875 118.1811065673828125 129.51953125 140.5148162841796875 154.27545166015625 164.78643798828125 169.291656494140625 169.280609130859375 170.012969970703125 175.190643310546875 179.5842742919921875 181.87237548828125 183.9263916015625 185.3878631591796875 185.871551513671875 186.83514404296875 188.3443450927734375 190.2424468994140625 192.758087158203125 194.3330230712890625 194.8473968505859375 194.1588287353515625 191.7654876708984375 186.4652252197265625 173.6046142578125 157.59539794921875 142.008514404296875 130.6480712890625 136.448577880859375 154.000274658203125 168.0677032470703125 182.5745086669921875 188.291595458984375 190.7541656494140625 186.4267120361328125 177.719940185546875 171.4635162353515625 168.9178924560546875 169.1753997802734375 172.1735382080078125 173.9711151123046875 169.43914794921875 159.1851043701171875 146.74371337890625 135.1160125732421875 126.89888763427734375 121.81067657470703125 118.4518890380859375 116.63201141357421875 114.28841400146484375 111.554351806640625 106.7442474365234375 101.75211334228515625 101.35401153564453125 102.9542388916015625 104.85227203369140625 105.8781585693359375 105.68930816650390625 105.064239501953125 104.5449371337890625 106.490753173828125 112.30852508544921875 119.00646209716796875 123.2411041259765625 125.37774658203125 124.8269500732421875 122.47406768798828125 118.96030426025390625 113.78330230712890625 104.65071868896484375 103.013763427734375 106.96482086181640625 109.17913818359375 110.32003021240234375 112.34344482421875 115.28515625 119.3775177001953125 123.62107086181640625 129.45928955078125 137.671234130859375 148.080902099609375 157.4258880615234375 167.88458251953125 179.7437591552734375 191.0942535400390625 198.2798309326171875 202.4963836669921875 203.392486572265625 201.140716552734375 198.8012542724609375 198.1706695556640625 198.41839599609375 199.03948974609375 199.890167236328125 200.90020751953125 201.7855987548828125 202.8648681640625 203.904022216796875 204.903472900390625 205.1860504150390625 204.8573150634765625 203.804962158203125 203.1485137939453125 202.97125244140625 202.80731201171875 202.52752685546875 201.9629058837890625 200.7791595458984375 199.4683685302734375 196.75799560546875 195.2015533447265625 194.81219482421875 194.528839111328125 194.3246307373046875 194.269256591796875 194.2921295166015625 193.766204833984375 192.879241943359375 191.82904052734375 190.96759033203125 189.448028564453125 185.9701385498046875 181.9454498291015625 179.8294525146484375 180.1472930908203125 182.6862030029296875 185.19390869140625 186.991180419921875 187.7779693603515625 188.5560455322265625 189.57672119140625 190.9309539794921875 193.29803466796875 196.4128875732421875 199.2451934814453125 201.76690673828125 204.9114837646484375 207.552642822265625 209.706756591796875 210.460784912109375 211.206878662109375 211.9298553466796875 212.75994873046875 213.4721527099609375 213.8194580078125 213.99053955078125 214.199127197265625 214.514312744140625 214.856475830078125 215.874542236328125 217.724609375 219.906951904296875 221.4937896728515625 223.0504150390625 224.3856353759765625 224.994384765625 225.076263427734375 225.2198486328125 225.4226226806640625 225.5827484130859375
-9999 -9999 -9999 -9999 -9999 -9999 -9999 -9999 -9999 -9999 -9999 -9999 -9999 -9999 -9999 -9999 -9999 -9999 -9999 -9999 -9999 -9999 -9999 -9999 -9999 -9999 -9999 -9999 99.54278564453125 105.72259521484375 109.06081390380859375 113.98209381103515625 119.97789764404296875 123.00415802001953125 124.62532806396484375 125.14794158935546875 123.92444610595703125 123.3106689453125 117.9222564697265625 113.8907623291015625 107.977874755859375 99.47864532470703125 96.50867462158203125 97.17815399169921875 98.30188751220703125 100.43914794921875 103.60028839111328125 109.40752410888671875 121.0876922607421875 132.7732391357421875 145.5323486328125 157.1046600341796875 165.6963653564453125 169.0736083984375 166.9807891845703125 162.874786376953125 162.4235076904296875 167.88720703125 174.364471435546875 178.602752685546875 179.7373046875 179.283111572265625 177.2175445556640625 176.3871307373046875 177.367401123046875 179.2797393798828125 183.681671142578125 187.67230224609375 190.0641937255859375 189.5029754638671875 185.24945068359375 174.6108245849609375 161.340423583984375 147.2967987060546875 133.1799468994140625 124.339263916015625 132.37548828125 149.8288116455078125 165.2629547119140625 175.429901123046875 178.278717041015625 181.6888275146484375 180.64959716796875 174.27166748046875 167.2013092041015625 163.551788330078125 161.8766326904296875 162.9377288818359375 163.833709716796875 161.4469146728515625 154.2287445068359375 143.0080718994140625 132.773468017578125 124.244842529296875 118.418792724609375 114.55181121826171875 112.6040802001953125 111.30914306640625 109.36236572265625 104.911376953125 100.762237548828125 100.0597381591796875 101.271728515625 103.56758880615234375 103.95032501220703125 102.5959625244140625 100.52777099609375 100.1006011962890625 102.3891143798828125 106.9993438720703125 111.0261077880859375 113.476165771484375 114.21298980712890625 113.6539459228515625 112.5217132568359375 110.71337127685546875 107.0865020751953125 101.62419891357421875 104.51947784423828125 108.98223114013671875 110.37592315673828125 111.7050018310546875 113.28166961669921875 115.29628753662109375 118.12523651123046875 121.80938720703125 127.5815277099609375 135.3802642822265625 146.6436004638671875 156.0419158935546875 165.78570556640625 176.884185791015625 189.41522216796875 198.7763671875 200.5496673583984375 200.201019287109375 198.1861724853515625 196.2901458740234375 196.12701416015625 196.7924957275390625 197.5968017578125 198.427978515625 199.3753204345703125 200.3558502197265625 201.58990478515625 202.68804931640625 203.904754638671875 204.25665283203125 203.4829559326171875 202.4747161865234375 201.9884033203125 201.934814453125 201.8899383544921875 201.8140411376953125 201.4991912841796875 200.5366058349609375 199.3023834228515625 197.0315093994140625 195.3305816650390625 194.5890960693359375 194.2587890625 194.0495452880859375 193.9736480712890625 193.934112548828125 193.41400146484375 192.570526123046875 191.526397705078125 190.60308837890625 188.12042236328125 183.8614501953125 179.608734130859375 176.9167327880859375 179.03997802734375 182.723052978515625 185.4116668701171875 187.250640869140625 187.967376708984375 188.79681396484375 189.8602142333984375 191.7378387451171875 194.270050048828125 197.69512939453125 201.42364501953125 204.6656036376953125 207.5080413818359375 209.125762939453125 209.9758453369140625 210.423553466796875 211.061798095703125 211.6832275390625 212.3855133056640625 212.8318328857421875 213.0021514892578125 213.2465362548828125 213.5643463134765625 214.0150299072265625 214.462249755859375 215.2962646484375 217.078704833984375 219.401947021484375 221.593658447265625 223.2530059814453125 224.2067108154296875 224.7684478759765625 224.9848785400390625 225.076080322265625 225.1822509765625 225.2454986572265625
-9999 -9999 -9999 -9999 -9999 -9999 -9999 -9999 -9999 -9999 -9999 -9999 -9999 -9999 -9999 -9999 -9999 -9999 -9999 -9999 -9999 -9999 -9999 -9999 -9999 -9999 -9999 -9999 -9999 115.476287841796875 122.4107513427734375 130.3707122802734375 140.205291748046875 144.424591064453125 144.04376220703125 144.4249725341796875 143.0569610595703125 142.2512664794921875 131.5566864013671875 120.3991241455078125 113.190460205078125 105.14081573486328125 101.11944580078125 101.6348724365234375 103.13642120361328125 106.32659149169921875 113.476531982421875 121.81735992431640625 133.173553466796875 144.5324859619140625 158.0823822021484375 164.8452301025390625 168.990753173828125 167.1723480224609375 161.7243499755859375 155.3061370849609375 153.794403076171875 158.056182861328125 164.837066650390625 169.1980133056640625 168.6011810302734375 166.9151763916015625 164.731658935546875 163.9725341796875 164.5435638427734375 165.957763671875 170.7991180419921875 175.6258087158203125 178.852142333984375 179.2992095947265625 174.7200469970703125 164.0167999267578125 151.8624267578125 139.3449554443359375 127.14992523193359375 120.81812286376953125 128.0506439208984375 145.7181396484375 159.6944427490234375 167.59002685546875 169.1367645263671875 170.7890625 171.0989227294921875 168.65582275390625 163.60321044921875 160.05621337890625 157.145416259765625 155.6000213623046875 154.487274169921875 151.98199462890625 146.0757293701171875 137.1236572265625 128.2977142333984375 121.0605316162109375 115.5404205322265625 111.247650146484375 110.00838470458984375 108.439697265625 106.0664520263671875 102.67708587646484375 100.30661773681640625 99.93621826171875 100.88657379150390625 103.70708465576171875 103.326416015625 101.3319854736328125 98.50565338134765625 97.43042755126953125 98.5001678466796875 100.70847320556640625 102.84371185302734375 104.42174530029296875 104.926116943359375 104.7353515625 104.422882080078125 103.08634185791015625 101.28072357177734375 102.93212890625 109.01778411865234375 114.92682647705078125 117.44110870361328125 117.859344482421875 117.77355194091796875 118.16748046875 119.5182342529296875 123.58107757568359375 130.0854644775390625 137.79669189453125 147.51971435546875 156.4444580078125 165.4873199462890625 176.269927978515625 189.2051544189453125 199.0061798095703125 199.484375 197.820281982421875 195.97515869140625 194.8332366943359375 194.8750152587890625 195.53973388671875 196.3900299072265625 197.206512451171875 198.2826385498046875 199.4719390869140625 200.51666259765625 201.41143798828125 202.484466552734375 202.8592071533203125 202.2219696044921875 201.4642791748046875 200.9069976806640625 200.8185272216796875 200.856781005859375 200.931121826171875 200.8673553466796875 200.379180908203125 199.364715576171875 197.227294921875 195.291900634765625 194.1179046630859375 193.679718017578125 193.4726715087890625 193.3936614990234375 193.341552734375 192.940765380859375 192.136383056640625 191.100433349609375 189.9655914306640625 185.9415435791015625 180.134765625 174.6053009033203125 172.927947998046875 179.1078033447265625 182.434661865234375 184.3222808837890625 186.032379150390625 187.1886749267578125 188.55853271484375 189.930084228515625 192.241363525390625 195.3016510009765625 199.12322998046875 203.125213623046875 206.6020660400390625 209.45245361328125 209.97174072265625 210.0532989501953125 210.35101318359375 210.858123779296875 211.3469696044921875 211.8387603759765625 211.986114501953125 212.074371337890625 212.4090423583984375 212.8482208251953125 213.4417877197265625 214.0388031005859375 214.886962890625 216.521728515625 218.8307342529296875 221.2504119873046875 222.616546630859375 223.1334228515625 223.7347869873046875 224.31597900390625 224.5754852294921875 224.7408905029296875 224.8195953369140625
-9999 -9999 -9999 -9999 -9999 -9999 -9999 -9999 -9999 -9999 -9999 -9999 -9999 -9999 -9999 -9999 -9999 -9999 -9999 -9999 -9999 -9999 -9999 -9999 -9999 -9999 -9999 -9999 -9999 128.326416015625 140.296478271484375 147.113494873046875 152.3681488037109375 154.92584228515625 155.365570068359375 155.0050201416015625 154.0364990234375 152.9141387939453125 149.0481414794921875 136.5724029541015625 122.2597503662109375 114.1527252197265625 110.1368408203125 109.20458984375 110.27288055419921875 114.16302490234375 125.4083099365234375 134.4539794921875 143.7603912353515625 153.6177825927734375 163.04595947265625 168.214874267578125 169.6562042236328125 165.9737548828125 160.4464263916015625 151.553070068359375 145.4656982421875 146.4391326904296875 151.702545166015625 156.398193359375 154.3460845947265625 151.8835601806640625 151.185028076171875 151.002532958984375 151.6156005859375 153.566314697265625 159.056396484375 164.1407012939453125 167.458526611328125 167.36468505859375 163.3058013916015625 153.0598602294921875 142.0205230712890625 132.2163238525390625 122.4641876220703125 117.32352447509765625 121.1718292236328125 134.2144927978515625 145.1529083251953125 154.0077362060546875 157.6690826416015625 157.7672882080078125 158.7321624755859375 159.894927978515625 159.168609619140625 157.2588958740234375 153.7516326904296875 151.05743408203125 149.547821044921875 145.295379638671875 138.9467315673828125 131.1773834228515625 124.51581573486328125 119.243011474609375 114.63846588134765625 110.861907958984375 109.72811126708984375 106.68145751953125 102.9161529541015625 100.73941802978515625 99.82617950439453125 99.13774871826171875 99.2991790771484375 101.643524169921875 101.89807891845703125 100.0034332275390625 94.67047119140625 93.03540802001953125 93.8707122802734375 95.037200927734375 97.237548828125 99.45513916015625 100.13204193115234375 100.1327362060546875 100.14603424072265625 100.239044189453125 102.45870208740234375 109.4453277587890625 116.84503936767578125 122.92079925537109375 125.22119903564453125 124.7590179443359375 122.88974761962890625 120.86814117431640625 120.562042236328125 125.020477294921875 133.0968170166015625 141.64739990234375 150.16253662109375 158.0678253173828125 166.6742706298828125 176.7015533447265625 188.3938751220703125 196.5718536376953125 196.6236572265625 195.0095977783203125 194.0662689208984375 193.588653564453125 193.5912322998046875 194.133941650390625 194.978118896484375 195.6531982421875 196.8007049560546875 198.0928802490234375 199.2963714599609375 200.221527099609375 201.2830657958984375 201.7277069091796875 201.3734283447265625 200.735992431640625 200.0542144775390625 199.8802490234375 200.0480194091796875 200.3019866943359375 200.3588409423828125 200.1701507568359375 199.559722900390625 197.31866455078125 195.1193084716796875 193.612030029296875 192.9718170166015625 192.7138519287109375 192.668212890625 192.67950439453125 192.4511260986328125 191.7288970947265625 190.800506591796875 189.5453033447265625 184.1025543212890625 176.0530242919921875 170.85150146484375 172.95086669921875 179.7793426513671875 181.6511688232421875 182.9896697998046875 184.545562744140625 185.9223480224609375 187.7401275634765625 189.62005615234375 192.6575164794921875 196.3520965576171875 200.2042694091796875 203.92596435546875 207.0463714599609375 209.488311767578125 209.9566497802734375 210.0174102783203125 210.21319580078125 210.5842437744140625 210.9199981689453125 211.1785736083984375 211.1410064697265625 211.1349334716796875 211.514801025390625 212.0810699462890625 212.8409576416015625 213.6113739013671875 214.67144775390625 216.1569976806640625 218.125335693359375 219.712860107421875 220.787445068359375 221.6144866943359375 222.305023193359375 222.9419708251953125 223.3693695068359375 223.7736358642578125 224.0053558349609375
-9999 -9999 -9999 -9999 -9999 -9999 -9999 -9999 -9999 -9999 -9999 -9999 -9999 -9999 -9999 -9999 -9999 -9999 -9999 -9999 -9999 -9999 -9999 -9999 -9999 -9999 -9999 -9999 -9999 -9999 150.27252197265625 153.0583648681640625 155.537872314453125 157.9000701904296875 158.8582305908203125 158.35113525390625 157.399017333984375 156.3267364501953125 155.1112213134765625 150.166748046875 136.298828125 128.52301025390625 122.6331634521484375 119.20611572265625 119.08602142333984375 123.95252227783203125 136.5388946533203125 146.4061126708984375 155.7945709228515625 162.4879608154296875 167.118804931640625 170.0132904052734375 170.6361236572265625 168.6985626220703125 164.97271728515625 156.6418609619140625 144.0164642333984375 136.0954437255859375 136.6343536376953125 137.9974822998046875 138.28875732421875 138.45751953125 138.3250579833984375 138.4946441650390625 139.352508544921875 143.33160400390625 150.2809600830078125 156.5532379150390625 160.3823089599609375 159.2501068115234375 154.9839019775390625 145.75360107421875 136.0909576416015625 130.022064208984375 122.60460662841796875 113.53223419189453125 114.77637481689453125 123.71051788330078125 132.9677734375 141.8812713623046875 148.7601470947265625 149.6923980712890625 150.5112762451171875 153.3202362060546875 154.809600830078125 154.994232177734375 154.14886474609375 152.64886474609375 150.903289794921875 147.4087982177734375 141.78131103515625 134.65277099609375 128.641082763671875 122.9466400146484375 118.54111480712890625 114.89743804931640625 112.2314605712890625 107.8101348876953125 102.91333770751953125 100.548583984375 99.5838470458984375 97.56412506103515625 95.53621673583984375 96.72324371337890625 97.959259033203125 95.891510009765625 90.935028076171875 90.856781005859375 92.1044769287109375 93.0323333740234375 96.1835174560546875 99.210296630859375 100.37844085693359375 101.26280975341796875 102.931488037109375 106.59482574462890625 113.56620025634765625 121.41667938232421875 128.2000579833984375 133.101043701171875 133.6886138916015625 131.752655029296875 128.6250457763671875 125.44585418701171875 123.64917755126953125 126.74817657470703125 133.928009033203125 142.7638092041015625 151.4473419189453125 159.6478729248046875 168.2000579833984375 177.2598724365234375 187.1690216064453125 192.6018524169921875 193.429656982421875 193.0388641357421875 192.4690093994140625 192.1374664306640625 192.145660400390625 192.671295166015625 193.512939453125 194.2346343994140625 195.185882568359375 196.2083892822265625 197.8744354248046875 199.41741943359375 200.55462646484375 200.887054443359375 200.707366943359375 200.1217193603515625 199.292083740234375 199.1903839111328125 199.5254364013671875 199.9075469970703125 200.054168701171875 200.0212249755859375 199.723052978515625 197.4283905029296875 194.865997314453125 192.9302520751953125 192.090545654296875 191.7989044189453125 191.80224609375 191.83038330078125 191.67401123046875 191.1398773193359375 190.41339111328125 189.219329833984375 184.3530426025390625 174.606170654296875 168.44537353515625 169.113189697265625 175.0972137451171875 180.1559600830078125 181.4598541259765625 182.671234130859375 184.2101287841796875 186.5904693603515625 189.19219970703125 192.933441162109375 197.22332763671875 201.275482177734375 204.6700439453125 207.17645263671875 208.9918212890625 209.5337677001953125 209.739654541015625 209.938995361328125 210.2232666015625 210.3933258056640625 210.42071533203125 210.263336181640625 210.1627044677734375 210.64996337890625 211.4005279541015625 212.34033203125 213.2303619384765625 214.3112030029296875 215.4975128173828125 217.052215576171875 218.2838134765625 219.3679962158203125 220.3363189697265625 221.008880615234375 221.746063232421875 222.3004608154296875 222.83807373046875 223.188690185546875
-9999 -9999 -9999 -9999 -9999 -9999 -9999 -9999 -9999 -9999 -9999 -9999 -9999 -9999 -9999 -9999 -9999 -9999 -9999 -9999 -9999 -9999 -9999 -9999 -9999 -9999 -9999 -9999 -9999 -9999 153.9701385498046875 155.3062286376953125 156.913604736328125 159.2136077880859375 160.2006683349609375 159.9949798583984375 159.5909271240234375 158.5150604248046875 157.22027587890625 155.7418975830078125 152.3170318603515625 149.06451416015625 140.902191162109375 132.91015625 128.5778045654296875 133.3019866943359375 146.56884765625 157.2429351806640625 164.08612060546875 167.0993804931640625 169.8035125732421875 171.76153564453125 173.168121337890625 174.0253143310546875 171.4376373291015625 161.9276580810546875 148.4632415771484375 134.3900299072265625 128.523681640625 123.32329559326171875 122.54976654052734375 123.43390655517578125 125.9450836181640625 129.69927978515625 130.74853515625 135.759674072265625 145.4186859130859375 152.1555023193359375 153.7059783935546875 151.2153167724609375 147.63330078125 140.029022216796875 130.63885498046875 130.0106964111328125 126.2051849365234375 113.96527099609375 110.33399200439453125 113.2349395751953125 120.253387451171875 130.5851287841796875 140.3260345458984375 141.9061737060546875 144.129425048828125 147.6009979248046875 150.2131805419921875 153.597991943359375 157.730987548828125 158.255035400390625 156.9947662353515625 154.4264984130859375 149.617431640625 142.7620391845703125 136.6177825927734375 130.3994903564453125 126.13405609130859375 121.5729522705078125 117.8631439208984375 113.15431976318359375 108.7826995849609375 106.5879669189453125 103.774627685546875 98.67249298095703125 92.90608978271484375 91.703857421875 92.65207672119140625 91.39760589599609375 90.5147705078125 94.0624542236328125 97.50136566162109375 99.2973175048828125 100.63420867919921875 102.4970703125 105.02129364013671875 107.8854827880859375 112.452484130859375 120.29273223876953125 127.970306396484375 134.0867919921875 139.5435943603515625 143.196441650390625 142.4276123046875 139.0848541259765625 135.1129913330078125 131.1938629150390625 128.36376953125 129.1194915771484375 134.7124481201171875 143.9760894775390625 152.9395904541015625 160.9555511474609375 169.12396240234375 177.3738250732421875 186.3621978759765625 190.5774383544921875 191.23004150390625 191.02227783203125 190.5875396728515625 190.39959716796875 190.4058074951171875 190.966217041015625 191.8121490478515625 192.6368560791015625 193.6838836669921875 194.752410888671875 196.557830810546875 198.3686981201171875 199.7729644775390625 200.10614013671875 199.9552459716796875 199.4214935302734375 198.798248291015625 198.7029571533203125 198.9683685302734375 199.4847869873046875 199.894744873046875 200.0179443359375 199.8504638671875 197.68060302734375 194.59283447265625 191.88421630859375 190.9472503662109375 190.7970733642578125 190.897705078125 190.9693756103515625 190.81463623046875 190.307647705078125 189.53802490234375 188.3790283203125 185.8249359130859375 180.3024139404296875 173.4198455810546875 168.1080169677734375 164.462005615234375 174.5420989990234375 179.629669189453125 180.6307220458984375 182.7454681396484375 185.8880615234375 188.9011383056640625 193.11572265625 198.097076416015625 202.4869537353515625 205.444122314453125 207.3615570068359375 208.524169921875 208.8595428466796875 209.0334930419921875 209.244171142578125 209.615142822265625 209.78125 209.5803375244140625 209.28411865234375 209.3756866455078125 210.0426483154296875 210.8563690185546875 211.874603271484375 212.7647705078125 213.784576416015625 214.7401885986328125 215.8902435302734375 217.0194854736328125 218.0957183837890625 219.028533935546875 219.7620849609375 220.5697784423828125 221.205963134765625 221.7823944091796875 222.15020751953125
-9999 -9999 -9999 -9999 -9999 -9999 -9999 -9999 -9999 -9999 -9999 -9999 -9999 -9999 -9999 -9999 -9999 -9999 -9999 -9999 -9999 -9999 -9999 -9999 -9999 -9999 -9999 -9999 -9999 -9999 -9999 155.726318359375 157.1966552734375 159.10186767578125 160.038970947265625 160.2102813720703125 160.3001708984375 159.8755950927734375 158.8743896484375 158.16339111328125 158.2274627685546875 158.5315704345703125 156.528411865234375 151.1542510986328125 145.22064208984375 148.108917236328125 158.999298095703125 164.6196136474609375 167.4743194580078125 169.540435791015625 171.6046600341796875 173.5751495361328125 175.7129974365234375 178.01300048828125 177.9095306396484375 170.0069580078125 158.076019287109375 140.0751800537109375 128.3455963134765625 120.0675048828125 117.68988800048828125 118.699188232421875 125.45607757568359375 131.4107208251953125 135.249298095703125 140.5893707275390625 149.8245391845703125 154.7293853759765625 148.6545867919921875 140.994964599609375 137.447998046875 133.1431732177734375 124.65608978271484375 123.93062591552734375 122.674896240234375 115.86190032958984375 110.21805572509765625 108.781890869140625 113.839874267578125 125.480377197265625 134.370330810546875 136.3206787109375 138.626129150390625 142.1085357666015625 146.7841339111328125 152.74542236328125 160.53436279296875 162.6691131591796875 161.126373291015625 159.0603485107421875 155.782928466796875 150.5402984619140625 144.78326416015625 138.49615478515625 134.0721893310546875 128.57562255859375 123.94634246826171875 118.94133758544921875 113.9670562744140625 110.72321319580078125 108.46163177490234375 102.918975830078125 96.32294464111328125 91.0578155517578125 89.99724578857421875 89.86376953125 92.21244049072265625 100.093780517578125 106.00229644775390625 108.81043243408203125 109.91471099853515625 111.14794158935546875 113.9914703369140625 118.24629974365234375 124.267822265625 136.0108184814453125 145.869110107421875 148.235076904296875 152.2110137939453125 155.5652313232421875 152.5051422119140625 147.4270477294921875 143.0089569091796875 138.826080322265625 134.54779052734375 131.5874481201171875 133.903076171875 143.387176513671875 153.15447998046875 160.636871337890625 167.50885009765625 174.9087066650390625 182.5473785400390625 188.1094818115234375 189.77001953125 189.496002197265625 188.978179931640625 188.8092498779296875 189.0434722900390625 189.617950439453125 190.2824859619140625 191.180572509765625 192.4067535400390625 193.6831207275390625 195.3291015625 196.982818603515625 198.5195159912109375 199.0890350341796875 199.03057861328125 198.6910858154296875 198.3575592041015625 198.276947021484375 198.4652252197265625 199.0295257568359375 199.67633056640625 200.2805938720703125 200.276336669921875 198.0412445068359375 194.36724853515625 190.867828369140625 189.9888916015625 189.9323272705078125 190.1332855224609375 190.2401275634765625 189.9833984375 189.259918212890625 188.3106536865234375 187.252166748046875 185.8204193115234375 184.179595947265625 181.358856201171875 176.984649658203125 167.07818603515625 165.9946441650390625 172.9637603759765625 177.4790191650390625 181.701629638671875 185.378326416015625 188.9512176513671875 193.7609405517578125 199.0009002685546875 203.4937896728515625 206.08062744140625 207.4725341796875 208.0673828125 208.2477874755859375 208.3496856689453125 208.417755126953125 208.65362548828125 208.86846923828125 208.895294189453125 208.7336578369140625 208.9582977294921875 209.8759613037109375 210.6099853515625 211.4309234619140625 212.172821044921875 213.1141815185546875 214.0244903564453125 214.951446533203125 215.8840484619140625 216.951568603515625 217.9058380126953125 218.7480010986328125 219.6860504150390625 220.368072509765625 220.838775634765625 221.1094818115234375
-9999 -9999 -9999 -9999 -9999 -9999 -9999 -9999 -9999 -9999 -9999 -9999 -9999 -9999 -9999 -9999 -9999 -9999 -9999 -9999 -9999 -9999 -9999 -9999 -9999 -9999 -9999 -9999 -9999 -9999 -9999 156.8691253662109375 157.9347381591796875 159.386474609375 160.2363739013671875 160.78680419921875 161.1130523681640625 160.870330810546875 160.260589599609375 159.8617706298828125 159.9233551025390625 160.545166015625 161.276214599609375 161.203460693359375 159.5683441162109375 161.113189697265625 165.360931396484375 167.1949920654296875 169.04754638671875 171.0127410888671875 172.991943359375 175.03997802734375 177.4353485107421875 179.5681915283203125 179.729705810546875 173.7396240234375 160.609649658203125 140.332427978515625 126.88478851318359375 118.25998687744140625 115.47876739501953125 117.21108245849609375 125.42600250244140625 133.366912841796875 140.476806640625 145.94781494140625 154.541961669921875 156.6102752685546875 144.4115142822265625 133.058258056640625 126.2499237060546875 123.49094390869140625 117.69866943359375 115.79889678955078125 116.05785369873046875 113.96576690673828125 108.9638519287109375 103.81085205078125 109.47357940673828125 119.3588104248046875 127.6738433837890625 130.9150238037109375 132.8312835693359375 136.8473358154296875 142.6338958740234375 149.301849365234375 160.3154296875 163.7855987548828125 161.759613037109375 160.3371429443359375 158.7314453125 154.20233154296875 150.0738067626953125 145.2606201171875 140.3874359130859375 134.01690673828125 127.18666839599609375 121.0924224853515625 115.7004547119140625 111.112884521484375 107.88021087646484375 102.442169189453125 96.5557403564453125 91.07723236083984375 89.55999755859375 89.376220703125 95.39089202880859375 106.70003509521484375 114.7528533935546875 118.42279052734375 120.407958984375 120.8756866455078125 122.51560211181640625 127.35860443115234375 132.9825439453125 144.4642791748046875 153.3651123046875 156.0736083984375 161.2956085205078125 166.8282928466796875 162.1443939208984375 155.7275390625 150.218231201171875 145.8991851806640625 141.3004302978515625 136.767486572265625 135.6459503173828125 141.878509521484375 151.91876220703125 159.424560546875 165.5042572021484375 171.568023681640625 178.5379638671875 185.293060302734375 187.739532470703125 187.831024169921875 187.38348388671875 187.1817626953125 187.4792633056640625 188.006317138671875 188.6875152587890625 189.7432861328125 191.0911712646484375 192.32183837890625 193.8748931884765625 195.476226806640625 197.1038055419921875 197.7376861572265625 197.8539581298828125 197.735931396484375 197.6003570556640625 197.5959625244140625 197.8213348388671875 198.5569610595703125 199.53759765625 201.18182373046875 201.4553375244140625 197.8792266845703125 193.2830352783203125 189.9497528076171875 189.228607177734375 188.92877197265625 188.9960479736328125 188.901153564453125 188.1878204345703125 187.5108642578125 186.8669586181640625 186.1849365234375 185.4027557373046875 184.76202392578125 182.9405670166015625 180.5824432373046875 175.3427734375 164.85888671875 160.7437591552734375 166.5229034423828125 176.833343505859375 184.4561767578125 189.0856781005859375 194.3486785888671875 199.3401947021484375 203.510589599609375 206.0665283203125 207.2238006591796875 207.689483642578125 207.8675537109375 207.91119384765625 207.882049560546875 207.9759979248046875 208.231414794921875 208.5167236328125 208.8136444091796875 209.2368011474609375 209.93353271484375 210.390777587890625 210.914276123046875 211.4773406982421875 212.327728271484375 213.225006103515625 214.205841064453125 215.0712738037109375 215.941986083984375 216.805206298828125 217.624664306640625 218.583465576171875 219.315093994140625 219.796966552734375 220.0289306640625
-9999 -9999 -9999 -9999 -9999 -9999 -9999 -9999 -9999 -9999 -9999 -9999 -9999 -9999 -9999 -9999 -9999 -9999 -9999 -9999 -9999 -9999 -9999 -9999 -9999 -9999 -9999 -9999 -9999 -9999 -9999 158.681427001953125 159.454345703125 160.26312255859375 161.121826171875 161.98333740234375 162.5606842041015625 162.2279815673828125 161.570892333984375 160.9643707275390625 160.7070770263671875 161.70867919921875 163.0619049072265625 164.6396636962890625 165.916961669921875 166.7465972900390625 167.8402252197265625 168.9833526611328125 170.381561279296875 172.2131195068359375 174.2813262939453125 176.6058502197265625 178.9914093017578125 180.5966033935546875 179.6939849853515625 170.18988037109375 154.54071044921875 136.8165283203125 124.15174102783203125 115.97992706298828125 112.94774627685546875 114.98220062255859375 123.51184844970703125 132.7160797119140625 140.13885498046875 144.217193603515625 147.2841644287109375 147.9096221923828125 142.80645751953125 131.8446197509765625 119.93430328369140625 114.07537078857421875 111.74266815185546875 108.5328369140625 109.214447021484375 108.6268463134765625 105.21073150634765625 101.05059051513671875 106.89374542236328125 115.75893402099609375 121.8029327392578125 123.38054656982421875 125.4487457275390625 130.498443603515625 136.424285888671875 143.2636871337890625 153.58526611328125 159.527008056640625 160.6191253662109375 159.151397705078125 155.8282012939453125 152.1967315673828125 149.2479400634765625 145.07342529296875 140.687103271484375 134.0186614990234375 126.7525177001953125 120.64969635009765625 116.2533416748046875 112.1426544189453125 110.37935638427734375 105.7933349609375 97.2803192138671875 90.723785400390625 89.6968536376953125 89.9018707275390625 98.17438507080078125 111.03528594970703125 121.05529022216796875 127.44478607177734375 131.1815032958984375 132.129791259765625 132.0618896484375 136.787353515625 141.266326904296875 148.723785400390625 154.936187744140625 160.1576995849609375 166.2869873046875 170.4024658203125 169.8900909423828125 166.3324432373046875 159.44744873046875 153.946685791015625 149.449737548828125 145.2450714111328125 141.5216064453125 141.6661834716796875 148.950042724609375 156.5637664794921875 162.783203125 168.8152923583984375 176.1484527587890625 183.3165130615234375 185.697418212890625 185.9675445556640625 185.61737060546875 185.3826446533203125 185.616363525390625 186.106781005859375 186.7761077880859375 187.658538818359375 189.3592681884765625 191.0125885009765625 192.834564208984375 194.498443603515625 196.174072265625 196.755523681640625 196.9037628173828125 196.884918212890625 196.8436431884765625 196.912353515625 197.2626953125 198.37896728515625 199.649078369140625 201.01629638671875 201.0141754150390625 197.124267578125 191.9308013916015625 189.0729217529296875 188.307098388671875 187.8147430419921875 187.542236328125 187.1504669189453125 186.240936279296875 185.73583984375 185.54779052734375 185.36651611328125 185.189971923828125 184.6965179443359375 183.0209197998046875 181.192962646484375 179.55499267578125 172.3690643310546875 161.1071624755859375 154.1453399658203125 160.509429931640625 180.9074859619140625 189.3540191650390625 195.0967254638671875 199.8077545166015625 203.8284454345703125 206.0029144287109375 206.9332275390625 207.399993896484375 207.5489349365234375 207.5366668701171875 207.460418701171875 207.4839019775390625 207.6944122314453125 208.0909881591796875 208.6287994384765625 209.3265380859375 209.94366455078125 210.119598388671875 210.35595703125 210.697235107421875 211.4889373779296875 212.472869873046875 213.598388671875 214.6268157958984375 215.2728118896484375 215.81964111328125 216.4674224853515625 217.28271484375 217.8978118896484375 218.457550048828125 219.0255126953125
-9999 -9999 -9999 -9999 -9999 -9999 -9999 -9999 -9999 -9999 -9999 -9999 -9999 -9999 -9999 -9999 -9999 -9999 -9999 -9999 -9999 -9999 -9999 -9999 -9999 -9999 -9999 -9999 -9999 -9999 -9999 159.6861419677734375 160.2356109619140625 160.802581787109375 161.8348236083984375 162.860107421875 163.654022216796875 163.35052490234375 162.769744873046875 162.2744903564453125 162.1298980712890625 162.9208831787109375 164.11334228515625 165.98138427734375 167.970916748046875 168.94525146484375 169.582244873046875 170.54248046875 171.8900299072265625 173.5111236572265625 175.33026123046875 177.4862060546875 179.515380859375 180.1831817626953125 178.0555419921875 166.32403564453125 150.3721160888671875 134.416778564453125 121.92125701904296875 113.64354705810546875 110.69367218017578125 112.7813720703125 122.53537750244140625 131.9389495849609375 137.24761962890625 138.2503662109375 136.4925994873046875 136.6775054931640625 134.7209014892578125 125.4871368408203125 113.18917083740234375 107.34964752197265625 107.13668060302734375 102.22252655029296875 102.4664764404296875 102.85132598876953125 100.9428863525390625 100.53643035888671875 106.0225677490234375 111.51715850830078125 114.57342529296875 114.316864013671875 115.06327056884765625 120.53981781005859375 127.79911041259765625 134.34893798828125 143.207489013671875 151.4282073974609375 156.869140625 156.1015167236328125 152.378662109375 148.065643310546875 144.3540191650390625 140.1742095947265625 135.83599853515625 130.2302398681640625 124.70278167724609375 120.59712982177734375 120.475616455078125 121.07163238525390625 119.7613372802734375 112.50525665283203125 99.73706817626953125 90.93895721435546875 89.91886138916015625 90.61118316650390625 98.15789794921875 109.2697601318359375 119.95549774169921875 128.4609832763671875 134.9796295166015625 138.482086181640625 138.74945068359375 141.7632598876953125 146.1269073486328125 151.2276153564453125 155.8494720458984375 161.3411712646484375 167.95556640625 171.663177490234375 173.4407196044921875 174.3816375732421875 168.90802001953125 161.290679931640625 156.284454345703125 152.78466796875 148.9814910888671875 146.54541015625 148.80560302734375 154.2147674560546875 161.3030853271484375 168.6583709716796875 176.41583251953125 182.124237060546875 184.2359466552734375 184.58404541015625 184.2833099365234375 184.01995849609375 184.0216064453125 184.444854736328125 185.1302490234375 185.924041748046875 187.7689666748046875 189.816558837890625 191.76971435546875 193.5814056396484375 195.32208251953125 195.7802886962890625 195.8905487060546875 195.8629302978515625 195.83135986328125 196.1717529296875 197.0197296142578125 198.5208740234375 199.9627838134765625 200.8909759521484375 200.1870269775390625 195.7443084716796875 190.355255126953125 187.702301025390625 187.0200958251953125 186.4622650146484375 185.985870361328125 185.5864105224609375 184.945770263671875 184.6234893798828125 184.5894622802734375 184.7763214111328125 184.7164459228515625 183.8372344970703125 182.2020721435546875 179.5257720947265625 173.172149658203125 166.5332489013671875 164.981689453125 158.0540771484375 152.9637603759765625 172.1715240478515625 189.0161590576171875 196.4304962158203125 200.8548126220703125 204.259368896484375 205.9417266845703125 206.7946624755859375 207.2350616455078125 207.3272857666015625 207.2249298095703125 207.0563812255859375 206.9848480224609375 207.1467132568359375 207.5803070068359375 208.2174835205078125 208.9831085205078125 209.3987274169921875 209.2742767333984375 209.656646728515625 210.0018463134765625 210.6751556396484375 211.7445068359375 212.9175262451171875 214.0112152099609375 214.7372589111328125 215.0079345703125 215.341796875 215.9822998046875 216.462432861328125 216.9584503173828125 217.662017822265625
-9999 -9999 -9999 -9999 -9999 -9999 -9999 -9999 -9999 -9999 -9999 -9999 -9999 -9999 -9999 -9999 -9999 -9999 -9999 -9999 -9999 -9999 -9999 -9999 -9999 -9999 -9999 -9999 -9999 -9999 -9999 -9999 160.593780517578125 161.254150390625 162.5124053955078125 163.594818115234375 164.4163818359375 164.4403228759765625 164.2180328369140625 163.941802978515625 163.8068389892578125 164.18182373046875 164.891632080078125 166.9269256591796875 169.4625244140625 170.623687744140625 171.2999114990234375 172.1575927734375 173.433197021484375 174.9138641357421875 176.5565948486328125 178.189727783203125 179.1756591796875 178.352203369140625 174.402587890625 159.1112518310546875 144.20599365234375 130.5164031982421875 119.99459075927734375 112.07381439208984375 110.05211639404296875 110.9626617431640625 119.7039947509765625 128.098663330078125 129.1984405517578125 128.020660400390625 125.79245758056640625 123.5460662841796875 118.12441253662109375 110.01280975341796875 102.26053619384765625 99.2225494384765625 98.83071136474609375 96.03629302978515625 96.91805267333984375 98.42499542236328125 97.84796905517578125 98.081390380859375 101.48957061767578125 104.8118133544921875 106.73004913330078125 107.20323944091796875 108.031524658203125 112.94965362548828125 119.21758270263671875 124.1551513671875 132.76580810546875 142.0270843505859375 149.74298095703125 152.1569366455078125 150.069610595703125 145.3839263916015625 140.97296142578125 137.2539825439453125 132.32403564453125 128.475372314453125 124.664703369140625 123.11432647705078125 126.973602294921875 131.822967529296875 130.4327392578125 119.95871734619140625 102.37090301513671875 90.7821502685546875 89.33403778076171875 90.13468170166015625 95.6981201171875 103.84447479248046875 113.92693328857421875 124.07543182373046875 133.10321044921875 139.1488037109375 140.9490966796875 144.49169921875 149.0489959716796875 152.82403564453125 156.3242340087890625 160.7158050537109375 167.0933837890625 171.6748809814453125 174.6519927978515625 177.6456298828125 178.0452423095703125 171.027862548828125 164.6939697265625 161.1177520751953125 157.765045166015625 155.3383941650390625 155.068511962890625 158.0160064697265625 164.250946044921875 172.1411285400390625 178.9227752685546875 181.472320556640625 182.594512939453125 183.036468505859375 182.8733062744140625 182.54730224609375 182.394256591796875 182.8397674560546875 183.780853271484375 184.7939605712890625 186.3721160888671875 188.5809326171875 190.838134765625 192.8973846435546875 194.853851318359375 195.234283447265625 195.2278289794921875 195.147979736328125 195.1535186767578125 195.8054656982421875 196.9260101318359375 198.5151824951171875 200.1370086669921875 201.610015869140625 200.41455078125 194.7095184326171875 189.05487060546875 186.47900390625 185.9569854736328125 185.505523681640625 185.0617523193359375 184.7066192626953125 184.0345458984375 183.6347198486328125 183.50494384765625 183.5392913818359375 183.2127532958984375 182.232635498046875 179.7015228271484375 167.0595855712890625 149.9059906005859375 147.040191650390625 148.7773590087890625 150.177886962890625 153.328765869140625 170.88897705078125 190.5911865234375 198.546142578125 201.7407989501953125 204.2817840576171875 205.8529510498046875 206.7679901123046875 207.20550537109375 207.194427490234375 206.935516357421875 206.6094207763671875 206.3874664306640625 206.4975433349609375 206.9501953125 207.5994720458984375 208.19500732421875 208.0474853515625 208.0942535400390625 209.0172271728515625 209.63824462890625 210.2403717041015625 211.251190185546875 212.3363494873046875 213.230804443359375 213.939697265625 214.46026611328125 214.8608551025390625 215.1092987060546875 215.1948394775390625 215.3680419921875 216.021881103515625
-9999 -9999 -9999 -9999 -9999 -9999 -9999 -9999 -9999 -9999 -9999 -9999 -9999 -9999 -9999 -9999 -9999 -9999 -9999 -9999 -9999 -9999 -9999 -9999 -9999 -9999 -9999 -9999 -9999 -9999 -9999 -9999 -9999 162.3146209716796875 163.32781982421875 164.137847900390625 164.9197540283203125 165.47393798828125 165.77996826171875 165.7081146240234375 165.4616851806640625 165.353790283203125 165.69329833984375 167.8077392578125 170.230621337890625 171.5168609619140625 172.6456146240234375 173.4684906005859375 174.4513397216796875 175.6950531005859375 177.3307342529296875 178.3640289306640625 178.0926055908203125 176.34661865234375 169.424530029296875 152.3925018310546875 139.2688446044921875 127.55718994140625 119.42653656005859375 112.666259765625 110.10797119140625 110.2755279541015625 115.855560302734375 121.1197357177734375 120.45287322998046875 119.81748199462890625 118.29338836669921875 114.35938262939453125 107.2022247314453125 100.479156494140625 96.38573455810546875 93.83756256103515625 92.5352020263671875 91.063323974609375 92.5709381103515625 94.11107635498046875 93.820648193359375 93.65079498291015625 96.18187713623046875 98.4707183837890625 100.16162872314453125 101.4418487548828125 102.9702301025390625 107.86038970947265625 112.75458526611328125 116.09050750732421875 123.60137176513671875 133.8040924072265625 145.389007568359375 150.347381591796875 149.406341552734375 145.817626953125 142.1690216064453125 139.228759765625 135.1703033447265625 130.409393310546875 127.8162384033203125 127.69007110595703125 131.492034912109375 137.681976318359375 134.2089996337890625 121.8303985595703125 103.80924224853515625 89.9669952392578125 86.6338958740234375 87.61220550537109375 92.65198516845703125 99.79703521728515625 107.8323211669921875 117.22855377197265625 126.71315765380859375 135.0873870849609375 140.6881866455078125 145.597442626953125 150.0380706787109375 153.387939453125 156.5659637451171875 160.2589874267578125 166.0946807861328125 170.797149658203125 173.268280029296875 175.534912109375 177.617767333984375 177.0694427490234375 172.45989990234375 168.2326812744140625 164.6873931884765625 162.1629180908203125 161.6022491455078125 163.411651611328125 168.181121826171875 175.1233673095703125 179.7540130615234375 180.8357391357421875 181.527435302734375 181.848480224609375 181.6865081787109375 181.277069091796875 180.873565673828125 181.314788818359375 182.480865478515625 183.8434600830078125 185.433807373046875 187.4705352783203125 189.712921142578125 191.957000732421875 194.0408935546875 194.5244293212890625 194.28662109375 194.3532867431640625 194.712677001953125 195.41143798828125 196.5780792236328125 198.336669921875 199.9480133056640625 200.8713531494140625 199.467254638671875 193.3211822509765625 188.65130615234375 186.38909912109375 185.3762054443359375 184.6962890625 183.305511474609375 182.63775634765625 182.3117218017578125 182.1304168701171875 182.0949859619140625 181.93212890625 181.400146484375 179.35614013671875 169.1268463134765625 148.6536407470703125 144.3888092041015625 153.887176513671875 158.28131103515625 162.8385467529296875 168.5489959716796875 183.88336181640625 195.3207244873046875 200.45135498046875 202.4384307861328125 204.4183502197265625 205.82025146484375 206.7889404296875 207.3324737548828125 207.143096923828125 206.653289794921875 206.1544647216796875 205.714508056640625 205.75628662109375 206.23138427734375 206.8589019775390625 207.40423583984375 207.6098175048828125 208.052886962890625 208.8687286376953125 209.5228118896484375 210.23248291015625 211.151123046875 212.032745361328125 212.731842041015625 213.312896728515625 213.7849273681640625 214.1776885986328125 214.3517608642578125 214.1488037109375 214.0985565185546875 214.59130859375
-9999 -9999 -9999 -9999 -9999 -9999 -9999 -9999 -9999 -9999 -9999 -9999 -9999 -9999 -9999 -9999 -9999 -9999 -9999 -9999 -9999 -9999 -9999 -9999 -9999 -9999 -9999 -9999 -9999 -9999 -9999 -9999 -9999 -9999 -9999 164.622314453125 166.097991943359375 167.01434326171875 167.99847412109375 168.3739776611328125 168.4574737548828125 168.069976806640625 168.056427001953125 169.3513031005859375 171.2581634521484375 172.630523681640625 173.960693359375 174.6870880126953125 175.0643310546875 175.93896484375 177.287353515625 177.5843505859375 176.630035400390625 173.6565704345703125 164.3323211669921875 149.08551025390625 138.8629608154296875 130.307281494140625 123.84149169921875 116.78151702880859375 110.86740875244140625 110.03363037109375 111.892333984375 112.601806640625 111.53800201416015625 112.0686187744140625 110.74854278564453125 106.14231109619140625 100.8209991455078125 97.0651397705078125 92.84688568115234375 90.35150909423828125 89.01177978515625 87.693878173828125 88.31317901611328125 89.641326904296875 89.948028564453125 89.86457061767578125 91.09503936767578125 92.95928192138671875 94.7702178955078125 97.14031982421875 100.45378875732421875 104.0201568603515625 106.2446441650390625 109.650299072265625 119.14842987060546875 131.5655517578125 145.70135498046875 151.7001953125 152.2876129150390625 149.0460205078125 145.4218292236328125 141.897430419921875 137.92626953125 132.01702880859375 129.7694854736328125 129.93316650390625 132.6306304931640625 137.524810791015625 132.5571441650390625 120.71073150634765625 106.2606964111328125 90.45738983154296875 82.20529937744140625 83.909515380859375 89.18334197998046875 95.318267822265625 101.963653564453125 109.30950927734375 118.09197998046875 127.47446441650390625 136.8321075439453125 144.8858642578125 150.38818359375 153.8899383544921875 157.0475921630859375 160.6430206298828125 166.237762451171875 170.522918701171875 172.318939208984375 173.6834259033203125 174.87298583984375 177.2573089599609375 179.08233642578125 177.5763092041015625 174.4278106689453125 171.8314666748046875 170.6123199462890625 171.05291748046875 174.370391845703125 178.54071044921875 179.778106689453125 180.1706085205078125 180.478912353515625 180.6087493896484375 180.39715576171875 179.563995361328125 178.339630126953125 179.0627899169921875 180.8536529541015625 182.6568145751953125 184.428314208984375 186.2640228271484375 188.7658538818359375 190.9256439208984375 192.353912353515625 192.8418426513671875 192.8103179931640625 193.15875244140625 193.9098052978515625 194.956146240234375 195.99884033203125 197.9472808837890625 199.763641357421875 199.8344573974609375 197.3552093505859375 191.87042236328125 188.5341339111328125 186.5081634521484375 185.082733154296875 183.6383819580078125 180.78533935546875 179.349700927734375 179.3352813720703125 180.291778564453125 180.909393310546875 180.652587890625 178.8817138671875 172.2952880859375 155.41845703125 142.838470458984375 154.0770721435546875 169.1410369873046875 176.6995391845703125 182.471893310546875 186.0012664794921875 193.4580841064453125 198.690277099609375 201.15838623046875 202.875335693359375 204.5057525634765625 205.77093505859375 206.6651153564453125 207.21295166015625 206.89508056640625 206.2517547607421875 205.642333984375 205.0369720458984375 204.96282958984375 205.3950958251953125 205.9770050048828125 206.5751953125 207.296112060546875 208.0005340576171875 208.8447418212890625 209.5795440673828125 210.399017333984375 211.13897705078125 211.736541748046875 212.2426910400390625 212.651611328125 212.9530487060546875 213.1340179443359375 213.150421142578125 212.8807525634765625 212.69244384765625 213.2581787109375
-9999 -9999 -9999 -9999 -9999 -9999 -9999 -9999 -9999 -9999 -9999 -9999 -9999 -9999 -9999 -9999 -9999 -9999 -9999 -9999 -9999 -9999 -9999 -9999 -9999 -9999 -9999 -9999 -9999 -9999 -9999 -9999 -9999 -9999 -9999 -9999 166.499786376953125 167.4561309814453125 168.6649017333984375 169.752166748046875 170.17816162109375 170.166107177734375 170.211578369140625 171.133148193359375 172.605865478515625 173.7848052978515625 174.80010986328125 174.9991455078125 175.04339599609375 175.5001983642578125 176.281646728515625 176.3564453125 175.7675018310546875 173.474151611328125 165.771087646484375 152.4861907958984375 144.1833953857421875 136.4552459716796875 128.5636444091796875 118.88657379150390625 110.34423828125 107.89524078369140625 109.04244232177734375 106.16670989990234375 103.8233795166015625 104.16058349609375 103.1125946044921875 100.87722015380859375 99.7182159423828125 97.49942779541015625 93.368682861328125 90.2091064453125 87.28469085693359375 84.052825927734375 84.68839263916015625 86.40978240966796875 87.29894256591796875 87.6825714111328125 88.10418701171875 88.831573486328125 90.11358642578125 93.044830322265625 97.63140869140625 100.2530059814453125 100.74017333984375 105.69045257568359375 117.32421112060546875 129.6478271484375 144.0623016357421875 152.2028656005859375 157.11114501953125 155.9406890869140625 149.081756591796875 143.3115997314453125 137.592010498046875 129.5667877197265625 125.1498565673828125 125.324493408203125 127.71083831787109375 129.71343994140625 125.84838104248046875 117.05312347412109375 106.09549713134765625 91.97347259521484375 81.2989501953125 81.41710662841796875 86.17487335205078125 91.200439453125 96.79560089111328125 103.01407623291015625 110.63745880126953125 120.4840545654296875 130.8414306640625 141.6484527587890625 149.6774444580078125 154.2895050048828125 157.8884735107421875 162.028961181640625 167.2088775634765625 170.4976348876953125 171.809967041015625 172.946136474609375 174.0005645751953125 175.75823974609375 178.6808624267578125 179.915863037109375 179.7988128662109375 179.4134979248046875 177.2901611328125 176.363037109375 178.4451446533203125 179.7518310546875 179.602935791015625 179.600616455078125 179.518585205078125 179.42498779296875 179.0523681640625 177.5789947509765625 175.96270751953125 177.09710693359375 179.49609375 181.5410919189453125 183.2413330078125 184.8197479248046875 187.7458038330078125 190.061492919921875 190.8071136474609375 191.0153350830078125 191.0860748291015625 191.707061767578125 192.8440093994140625 194.4183197021484375 195.672576904296875 197.7977752685546875 199.662628173828125 198.631103515625 195.4368438720703125 191.0634307861328125 188.229034423828125 186.2793426513671875 184.3539886474609375 181.405517578125 174.3774261474609375 168.792877197265625 168.32879638671875 173.4355010986328125 177.88641357421875 176.5866851806640625 168.7949676513671875 154.7633514404296875 138.3882598876953125 145.808990478515625 167.2032928466796875 178.4499053955078125 183.1375885009765625 187.0811920166015625 191.016143798828125 196.391357421875 200.0463409423828125 201.50897216796875 203.1391448974609375 204.64910888671875 205.594207763671875 206.212890625 206.550140380859375 206.343292236328125 205.796844482421875 205.227264404296875 204.74151611328125 204.621185302734375 204.8168487548828125 205.235931396484375 205.85162353515625 206.8830108642578125 207.8561248779296875 208.8489837646484375 209.6599884033203125 210.526397705078125 211.070220947265625 211.4543609619140625 211.800323486328125 212.071624755859375 212.24835205078125 212.304534912109375 212.2041168212890625 211.8436737060546875 211.4821319580078125 212.16534423828125
-9999 -9999 -9999 -9999 -9999 -9999 -9999 -9999 -9999 -9999 -9999 -9999 -9999 -9999 -9999 -9999 -9999 -9999 -9999 -9999 -9999 -9999 -9999 -9999 -9999 -9999 -9999 -9999 -9999 -9999 -9999 -9999 -9999 -9999 -9999 -9999 -9999 167.716033935546875 168.820831298828125 170.3050079345703125 171.107635498046875 171.6187744140625 172.1310882568359375 173.1843719482421875 174.3381195068359375 175.073272705078125 175.28009033203125 175.0989990234375 174.775146484375 173.6210784912109375 174.0477447509765625 175.127197265625 175.1405792236328125 174.21630859375 168.8493499755859375 157.8304290771484375 148.5176239013671875 138.7491302490234375 127.51055145263671875 115.5852203369140625 105.7109527587890625 101.6057281494140625 102.68488311767578125 99.608795166015625 96.3910675048828125 95.71051788330078125 96.3647918701171875 98.13198089599609375 100.96314239501953125 100.44142913818359375 97.86803436279296875 92.52651214599609375 86.8885498046875 81.06958770751953125 81.77696990966796875 83.9955291748046875 85.111968994140625 85.363525390625 85.395355224609375 85.5146331787109375 86.69586181640625 89.2634735107421875 92.8751678466796875 95.80847930908203125 98.4975128173828125 103.2425537109375 112.86518096923828125 122.52440643310546875 134.2207183837890625 142.901947021484375 150.4473724365234375 154.9633636474609375 150.2012176513671875 142.928863525390625 135.899261474609375 124.601806640625 117.07685089111328125 117.2227630615234375 120.88808441162109375 122.80599212646484375 119.38820648193359375 112.0249176025390625 102.992950439453125 92.08921051025390625 81.82456207275390625 80.41417694091796875 83.60160064697265625 87.778350830078125 92.08986663818359375 97.9210205078125 105.26236724853515625 114.504852294921875 124.742645263671875 137.8212127685546875 149.1305694580078125 154.7838134765625 158.7888946533203125 163.0260467529296875 167.250518798828125 170.0898590087890625 171.187957763671875 172.1460113525390625 173.1512451171875 174.7321624755859375 177.4017486572265625 179.5939788818359375 180.1308441162109375 180.726043701171875 179.62451171875 178.3956298828125 178.5030364990234375 178.188812255859375 177.6484832763671875 177.695526123046875 177.8321990966796875 177.6576690673828125 177.106414794921875 175.866790771484375 174.9349365234375 175.519622802734375 178.033905029296875 180.3860626220703125 181.84918212890625 183.5463409423828125 186.4658203125 188.9691619873046875 189.210906982421875 188.808074951171875 189.0265045166015625 190.1500091552734375 191.7017059326171875 193.706329345703125 195.516510009765625 197.434173583984375 198.7716064453125 197.7688446044921875 195.0332183837890625 191.123779296875 187.8842010498046875 185.4276580810546875 183.38238525390625 178.605865478515625 163.8513641357421875 152.3601837158203125 150.7249298095703125 159.5893707275390625 169.858917236328125 163.8145599365234375 147.63848876953125 137.521026611328125 140.4246978759765625 160.8674468994140625 176.728057861328125 182.966827392578125 184.9991455078125 188.0128326416015625 191.697662353515625 196.3958740234375 199.8445281982421875 201.553924560546875 203.0888671875 204.5048828125 205.2632598876953125 205.6404266357421875 205.8291778564453125 205.69573974609375 205.2984161376953125 204.788421630859375 204.2868194580078125 204.0637969970703125 204.20294189453125 204.672149658203125 205.2010650634765625 206.4008941650390625 207.70855712890625 208.9366607666015625 209.83160400390625 210.706878662109375 210.990234375 211.125701904296875 211.2913665771484375 211.4243316650390625 211.48382568359375 211.448760986328125 211.2537689208984375 210.840911865234375 210.5582275390625 211.13299560546875
-9999 -9999 -9999 -9999 -9999 -9999 -9999 -9999 -9999 -9999 -9999 -9999 -9999 -9999 -9999 -9999 -9999 -9999 -9999 -9999 -9999 -9999 -9999 -9999 -9999 -9999 -9999 -9999 -9999 -9999 -9999 -9999 -9999 -9999 -9999 -9999 -9999 168.4669647216796875 169.6237030029296875 170.837188720703125 171.9103851318359375 172.754791259765625 173.4402923583984375 174.5387115478515625 175.59283447265625 176.07147216796875 175.670379638671875 174.933074951171875 171.312713623046875 164.7544708251953125 165.59259033203125 171.6328125 173.516876220703125 173.9850616455078125 168.1563568115234375 155.63787841796875 143.9430389404296875 131.6168670654296875 119.4980621337890625 108.21349334716796875 101.71006011962890625 100.0550079345703125 99.35039520263671875 95.9219207763671875 92.062835693359375 91.25382232666015625 92.31900787353515625 95.40544891357421875 100.284027099609375 100.12960052490234375 97.152252197265625 91.3368072509765625 84.67356109619140625 80.286163330078125 80.93447113037109375 83.890960693359375 85.45148468017578125 84.46630096435546875 83.6181182861328125 83.06510162353515625 83.9210662841796875 86.34445953369140625 89.23535919189453125 92.168853759765625 96.66082000732421875 100.71593475341796875 105.89066314697265625 112.53415679931640625 121.21453857421875 129.9232330322265625 136.9051055908203125 140.2718048095703125 139.004425048828125 133.140472412109375 125.9937744140625 116.0626220703125 110.25772857666015625 110.8570098876953125 115.092559814453125 116.84207916259765625 113.3637237548828125 107.51232147216796875 100.063720703125 91.30450439453125 82.67180633544921875 80.1356353759765625 81.69004058837890625 85.5272979736328125 89.49684906005859375 95.10924530029296875 102.29575347900390625 111.0360260009765625 121.87802886962890625 137.5840911865234375 150.69769287109375 156.115631103515625 159.899658203125 163.516693115234375 167.0189361572265625 169.71112060546875 170.705291748046875 171.420654296875 172.2076263427734375 173.6724090576171875 175.701080322265625 177.5030517578125 177.9759979248046875 177.7856597900390625 177.2177734375 176.392852783203125 175.80377197265625 175.2559356689453125 175.1365203857421875 175.7786407470703125 176.3671112060546875 176.2424774169921875 175.6992340087890625 174.4940185546875 173.923248291015625 174.65576171875 176.915191650390625 179.180999755859375 180.3630828857421875 182.4697418212890625 185.2211456298828125 186.55950927734375 186.3932342529296875 186.121185302734375 186.752777099609375 188.43658447265625 190.355316162109375 192.5894775390625 194.693450927734375 196.4839630126953125 197.3599700927734375 196.987884521484375 195.186187744140625 191.2334747314453125 187.3562774658203125 184.40924072265625 182.276702880859375 176.0626373291015625 155.950592041015625 141.492828369140625 139.37628173828125 147.062896728515625 155.0245361328125 142.4708709716796875 134.1982574462890625 145.2839508056640625 161.5122222900390625 174.7915496826171875 181.6725616455078125 184.9142913818359375 185.7610626220703125 188.3197479248046875 191.9180450439453125 196.2089385986328125 199.627960205078125 201.357391357421875 202.754058837890625 204.0329742431640625 204.6896820068359375 204.940155029296875 205.176513671875 205.032958984375 204.648223876953125 204.1306304931640625 203.640838623046875 203.4247894287109375 203.77325439453125 204.4246063232421875 205.009857177734375 206.3930816650390625 207.961029052734375 209.3578033447265625 210.1129608154296875 210.7416229248046875 210.86566162109375 210.8333892822265625 210.850860595703125 210.8673553466796875 210.8465118408203125 210.76617431640625 210.5207061767578125 210.1974029541015625 210.0960540771484375 210.2612152099609375
