ncols        214
nrows        22
xllcorner    473250
yllcorner    4432800
cellsize     50.000000000000
NODATA_value -9999
105.72727203369140625 126.4234161376953125 131.7320556640625 132.5807952880859375 132.7864532470703125 132.022613525390625 127.5783538818359375 120.59197998046875 119.55267333984375 120.812835693359375 124.5016326904296875 130.7346954345703125 132.7152099609375 144.2321319580078125 153.5684814453125 161.555999755859375 163.521392822265625 165.7061004638671875 169.0904388427734375 170.662384033203125 171.5363616943359375 172.2055511474609375 173.435455322265625 174.5626983642578125 176.2452545166015625 177.8482513427734375 179.698638916015625 180.24786376953125 180.713653564453125 181.272064208984375 181.7009735107421875 182.188720703125 182.6326141357421875 182.96307373046875 183.6700439453125 183.9514617919921875 183.7263946533203125 182.5213470458984375 174.77764892578125 168.09124755859375 159.82171630859375 151.5667572021484375 141.4549102783203125 136.44677734375 133.3002471923828125 130.83709716796875 137.994293212890625 153.3257598876953125 165.31524658203125 174.9424896240234375 177.9244384765625 179.6142425537109375 181.7075042724609375 184.748870849609375 187.1751861572265625 188.734588623046875 189.76141357421875 191.04107666015625 192.9265594482421875 193.7134552001953125 192.727508544921875 191.885894775390625 191.4886322021484375 191.5037078857421875 192.0872955322265625 192.989959716796875 194.1514129638671875 194.9407806396484375 195.0206298828125 195.166015625 195.4047393798828125 195.6341094970703125 195.3418121337890625 193.6328887939453125 189.959136962890625 184.680023193359375 180.083587646484375 175.5656585693359375 170.9265899658203125 170 170.550537109375 172.982666015625 176.2365875244140625 179.2735443115234375 183.7980499267578125 187.842864990234375 190.9241485595703125 195.7635498046875 199.202789306640625 204.9943389892578125 210.64739990234375 214.826751708984375 218.2850341796875 221.31842041015625 223.5485382080078125 225.84613037109375 227.9232177734375 229.662139892578125 231.885711669921875 234.058319091796875 236.576446533203125 238.55059814453125 240.0022430419921875 238.0635528564453125 218.3565521240234375 200.7720794677734375 187.0550994873046875 174.486846923828125 166.907867431640625 173.8630523681640625 181.9058990478515625 195.8632659912109375 208.8853912353515625 225.5208892822265625 237.7808990478515625 244.91656494140625 244.666839599609375 247.087066650390625 252.6135711669921875 258.147552490234375 261.550262451171875 257.65655517578125 248.9120941162109375 239.4103851318359375 227.580810546875 216.5136871337890625 207.0023956298828125 200.19744873046875 195.8062744140625 195.09637451171875 197.8212738037109375 201.7086334228515625 197.140655517578125 188.1379852294921875 182.88336181640625 183.8546142578125 187.42266845703125 188.7132415771484375 189.5782928466796875 189.6363067626953125 188.314361572265625 189.152130126953125 190.81298828125 190.3423004150390625 188.051849365234375 184.7294769287109375 180.1503143310546875 172.0895233154296875 170.0010528564453125 176.0656280517578125 186.7495269775390625 198.938323974609375 208.03045654296875 210.070159912109375 210.02581787109375 209.4572601318359375 203.4588470458984375 196.8669891357421875 190.031768798828125 189.985321044921875 189.9549407958984375 189.958526611328125 189.98895263671875 190.351898193359375 192.6293182373046875 195.9286041259765625 197.82818603515625 199.0313873291015625 199.8661956787109375 200.62078857421875 201.2220001220703125 202.1049346923828125 202.8886260986328125 203.777099609375 204.981903076171875 206.740570068359375 208.543975830078125 209.5015869140625 209.803253173828125 210.820587158203125 212.313140869140625 213.36065673828125 214.4009246826171875 215.2134552001953125 217.126617431640625 219.3806915283203125 221.6508636474609375 224.6043243408203125 227.3229827880859375 231.000335693359375 233.879852294921875 237.2715301513671875 238.862030029296875 239.1813201904296875 238.859161376953125 238.6506195068359375 238.633270263671875 238.572540283203125 238.299285888671875 238.3343048095703125 238.9554595947265625 239.5451812744140625 240.298736572265625 240.7826385498046875 241.1778717041015625 241.2845001220703125 241.27471923828125 240.7863922119140625 240.2613372802734375 239.8590087890625 239.739227294921875 239.4965972900390625 239.22357177734375 238.864227294921875
116.5781402587890625 127.6141357421875 130.25469970703125 130.5992431640625 130.667572021484375 129.8518218994140625 122.8323211669921875 114.99017333984375 117.66869354248046875 128.0019378662109375 139.44476318359375 143.5893402099609375 147.3099365234375 157.00396728515625 161.4079437255859375 164.595062255859375 167.4262847900390625 169.1968841552734375 170.4383544921875 171.3018951416015625 172.42535400390625 173.188079833984375 173.8136749267578125 174.6757965087890625 176.1672515869140625 177.6849212646484375 179.045654296875 179.146514892578125 179.604400634765625 179.9203643798828125 180.435577392578125 180.6651153564453125 180.1014251708984375 178.8125457763671875 180.3111724853515625 180.2005462646484375 176.5473785400390625 171.95867919921875 158.967071533203125 150.0233001708984375 142.0268096923828125 135.6715850830078125 129.495452880859375 130.141357421875 130.1522064208984375 134.8447723388671875 151.8611297607421875 163.226165771484375 175.3815460205078125 180.9700775146484375 182.373992919921875 183.5438690185546875 184.3876800537109375 185.89935302734375 188.4187469482421875 190.3158721923828125 191.25225830078125 191.6640777587890625 191.79718017578125 191.5723876953125 190.734161376953125 190.082122802734375 190.015838623046875 190.1039886474609375 190.8112945556640625 192.1026458740234375 193.437713623046875 194.6077423095703125 195.02166748046875 195.2190704345703125 195.4458465576171875 195.6470489501953125 195.3852386474609375 193.8655242919921875 190.3062744140625 183.819671630859375 178.50433349609375 173.889923095703125 170.164947509765625 170.0052337646484375 171.6982421875 174.707733154296875 178.26483154296875 181.9672393798828125 186.857147216796875 191.0856475830078125 195.981109619140625 200.9853363037109375 203.77081298828125 207.556640625 211.49334716796875 216.2400970458984375 219.003631591796875 220.1097869873046875 221.372161865234375 223.990081787109375 226.499053955078125 228.3256988525390625 230.246063232421875 232.556793212890625 235.025299072265625 236.9558563232421875 239.5997772216796875 239.272308349609375 220.3350372314453125 199.843719482421875 184.425201416015625 170.039398193359375 160.3621368408203125 164.416961669921875 173.359405517578125 187.318389892578125 200.40557861328125 218.837158203125 228.660888671875 232.0459747314453125 231.0810089111328125 234.8690643310546875 244.2279815673828125 250.9717254638671875 258.87188720703125 259.991363525390625 257.002777099609375 247.789703369140625 234.2101593017578125 222.6152801513671875 212.579986572265625 203.566680908203125 194.54620361328125 189.5029296875 189.1232452392578125 192.4038543701171875 193.614837646484375 189.1539764404296875 181.430419921875 180.022308349609375 182.057373046875 182.906524658203125 183.527374267578125 183.081085205078125 180.648712158203125 182.5088958740234375 184.69482421875 183.9520263671875 181.432159423828125 177.228790283203125 171.855865478515625 169.6633453369140625 169.8978118896484375 178.505157470703125 189.2258453369140625 202.60552978515625 210.0577850341796875 210.9120941162109375 210.4619293212890625 209.2844085693359375 203.2191314697265625 195.989349365234375 190.0444488525390625 190.0841522216796875 190.105621337890625 190.1048126220703125 190.08270263671875 190.084869384765625 192.3416900634765625 195.69744873046875 197.626739501953125 198.98687744140625 199.6811981201171875 200.0647125244140625 200.43585205078125 201.456695556640625 202.4499664306640625 203.642669677734375 204.8669891357421875 206.371368408203125 208.1180267333984375 209.3643035888671875 210.2623443603515625 211.2225799560546875 212.52197265625 213.5352020263671875 214.544464111328125 215.3844757080078125 217.3190460205078125 219.655181884765625 222.0446014404296875 224.8769989013671875 227.400054931640625 230.5413970947265625 233.1674957275390625 236.2538299560546875 237.913726806640625 237.8994140625 237.40966796875 237.15191650390625 237.0146331787109375 236.8658905029296875 236.5224456787109375 236.5064697265625 237.2833099365234375 238.076904296875 239.2491302490234375 239.733428955078125 239.650482177734375 239.6139678955078125 239.623443603515625 239.6301116943359375 239.6259002685546875 239.5865325927734375 239.477264404296875 239.2903594970703125 239.130401611328125 238.916168212890625
124.23802947998046875 129.5138397216796875 130.0014495849609375 129.8610687255859375 128.8871002197265625 126.58709716796875 117.0649871826171875 111.6848907470703125 120.19823455810546875 134.5855865478515625 143.152862548828125 149.9863739013671875 154.5179290771484375 160.054107666015625 161.985595703125 164.6884918212890625 167.3814544677734375 169.459320068359375 170.5604095458984375 171.2954559326171875 172.1478424072265625 172.656494140625 173.3210296630859375 174.1204681396484375 175.495635986328125 177.03753662109375 177.3441162109375 175.4579315185546875 174.486419677734375 174.0315399169921875 174.564453125 173.1097564697265625 170.815948486328125 167.0368499755859375 166.938568115234375 161.9323577880859375 150.8917694091796875 145.0585174560546875 137.8877105712890625 131.316192626953125 126.13694000244140625 123.04650115966796875 121.050750732421875 124.2465667724609375 132.431121826171875 146.1696929931640625 159.6375579833984375 169.60589599609375 179.3793182373046875 183.181427001953125 184.5251617431640625 185.9322509765625 186.980560302734375 187.9281005859375 189.7046966552734375 191.3448333740234375 192.7963409423828125 192.32135009765625 191.153900146484375 190.158233642578125 189.4015960693359375 189.3345184326171875 189.670867919921875 189.9321441650390625 190.4492034912109375 191.716888427734375 192.9649810791015625 194.1700286865234375 194.8761444091796875 195.12652587890625 195.2494659423828125 195.2975921630859375 195.175140380859375 193.317047119140625 189.1728668212890625 180.1473236083984375 175.21026611328125 171.2556304931640625 170.0006561279296875 170.072601318359375 172.7485504150390625 176.361907958984375 180.44207763671875 185.1917724609375 190.716766357421875 195.5726776123046875 201.026153564453125 206.082794189453125 209.4968109130859375 212.565704345703125 215.7667236328125 218.8162689208984375 219.81011962890625 220 220.80255126953125 223.282501220703125 225.7753448486328125 227.678863525390625 229.8058319091796875 231.560028076171875 233.4364013671875 234.8372650146484375 236.7230987548828125 231.487518310546875 213.5087432861328125 195.7417755126953125 180.4407196044921875 166.206390380859375 160.0247039794921875 165.5394134521484375 174.945343017578125 186.3238067626953125 196.318084716796875 210.4776153564453125 218.2541351318359375 218.4398956298828125 217.61810302734375 223.066192626953125 235.5818939208984375 244.076873779296875 250.9039764404296875 257.367584228515625 258.206329345703125 252.491607666015625 240.96392822265625 230.2735137939453125 219.2700653076171875 208.375518798828125 198.699432373046875 188.0977783203125 184.564453125 185.39404296875 188.871307373046875 188.6055450439453125 182.1186676025390625 176.036895751953125 172.9746551513671875 174.5991363525390625 175.9301605224609375 173.403350830078125 172.1954345703125 176.602081298828125 177.6094818115234375 175.772857666015625 172.4122772216796875 168.8277435302734375 167.3192596435546875 168.4038543701171875 169.56829833984375 178.629730224609375 190.4530792236328125 205.27178955078125 212.008453369140625 212.8249969482421875 211.430999755859375 209.184600830078125 203.020660400390625 195.6700897216796875 190.0716400146484375 190.1425323486328125 190.19891357421875 190.1988983154296875 190.148101806640625 190.1506195068359375 192.88525390625 195.9580078125 197.7628326416015625 199.1046600341796875 199.7290802001953125 199.99835205078125 200.0678253173828125 201.038299560546875 202.2454681396484375 203.6147918701171875 204.921051025390625 206.2133941650390625 207.907135009765625 209.342742919921875 210.692962646484375 211.7027587890625 213.041412353515625 214.1104278564453125 214.94525146484375 216.1553802490234375 217.8870849609375 219.8657684326171875 222.0699462890625 224.79937744140625 227.1793365478515625 230.2062835693359375 232.9699859619140625 235.68109130859375 236.610595703125 236.241424560546875 235.600830078125 235.393707275390625 235.166595458984375 235.015289306640625 234.67681884765625 234.7097625732421875 235.458831787109375 236.3634033203125 237.36358642578125 237.790618896484375 237.9979705810546875 238.2645721435546875 238.4817962646484375 238.6625823974609375 238.807525634765625 239.0362701416015625 239.15716552734375 239.1422882080078125 239.1092529296875 239.046142578125
125.10463714599609375 128.753570556640625 129.459564208984375 128.1178741455078125 126.1132049560546875 123.142181396484375 111.61304473876953125 113.1961517333984375 123.9629058837890625 136.100616455078125 143.5262451171875 150.6947479248046875 156.883026123046875 160.6838531494140625 161.903472900390625 163.85064697265625 166.1742401123046875 168.7297210693359375 170.356353759765625 170.84765625 171.315948486328125 171.5155792236328125 171.8245697021484375 172.4896392822265625 173.7053070068359375 174.9145965576171875 173.913482666015625 169.0164642333984375 161.5634307861328125 156.81317138671875 153.428863525390625 149.825469970703125 147.5232696533203125 144.2135772705078125 139.990478515625 136.4113311767578125 131.95770263671875 127.090789794921875 120.8734130859375 115.80499267578125 114.36649322509765625 119.30979156494140625 125.17502593994140625 135.5746917724609375 148.60491943359375 161.411468505859375 168.6929779052734375 175.0935821533203125 182.5710601806640625 185.11920166015625 186.0958099365234375 187.7412109375 189.40814208984375 189.82513427734375 190.3367156982421875 191.3486785888671875 192.404937744140625 191.9852752685546875 190.415557861328125 189.6421356201171875 189.1720123291015625 189.0460662841796875 189.298492431640625 189.775146484375 190.4834747314453125 191.6498565673828125 192.7946624755859375 193.9798736572265625 194.8402099609375 195.0277099609375 195.0770111083984375 195.0909423828125 194.846160888671875 192.4609375 185.070556640625 177.0096282958984375 172.4515838623046875 170.0813751220703125 170 170.1877288818359375 173.8197021484375 177.9209136962890625 182.6945648193359375 187.4552764892578125 193.0994415283203125 198.4481353759765625 204.6214599609375 210.4832305908203125 213.0925750732421875 216.549713134765625 219.492950439453125 220 220 220.0359039306640625 221.1861419677734375 223.1772003173828125 225.2639007568359375 227.172393798828125 229.380096435546875 230.530548095703125 231.5835113525390625 232.1660308837890625 231.66650390625 218.932586669921875 202.42645263671875 187.70404052734375 174.756927490234375 162.7442169189453125 160 169.7130126953125 180.8034515380859375 189.011962890625 191.43548583984375 195.382415771484375 201.1064605712890625 201.6632080078125 201.1321868896484375 206.76171875 219.126007080078125 230.5069122314453125 240.6660919189453125 248.9429473876953125 253.1510772705078125 251.445281982421875 248.128997802734375 239.0694732666015625 228.9487457275390625 214.807342529296875 203.990234375 188.30865478515625 181.6653289794921875 180.71142578125 182.927398681640625 183.5506744384765625 181.0528564453125 175.547149658203125 170.0385284423828125 169.7987518310546875 170.3686370849609375 170.00335693359375 169.939361572265625 171.5595550537109375 170.7800140380859375 166.593017578125 163.61962890625 161.139495849609375 160.9134979248046875 162.8686370849609375 169.226806640625 180.6597747802734375 191.7810821533203125 207.070098876953125 214.133270263671875 216.138763427734375 212.349822998046875 208.246917724609375 202.388153076171875 195.3273468017578125 190.073486328125 190.182708740234375 190.3037261962890625 190.305450439453125 190.1763763427734375 190.3621673583984375 193.697601318359375 196.81982421875 198.28594970703125 199.3823699951171875 199.88323974609375 200.042572021484375 200.1500701904296875 201.1129150390625 202.290374755859375 203.55389404296875 204.708831787109375 205.965179443359375 207.6756134033203125 209.217376708984375 210.7976837158203125 211.862640380859375 213.3250579833984375 214.686004638671875 215.687469482421875 216.8485870361328125 218.3938140869140625 220.0784149169921875 221.80218505859375 224.53570556640625 226.9123077392578125 229.8851470947265625 232.2801971435546875 234.8349609375 235.48065185546875 235.2519683837890625 234.79583740234375 234.428558349609375 234.0616607666015625 233.7985382080078125 233.54833984375 233.618408203125 234.18572998046875 234.9741973876953125 235.731536865234375 236.2146453857421875 236.7264862060546875 237.2259979248046875 237.5496063232421875 237.82330322265625 238.032989501953125 238.4046173095703125 238.768890380859375 239.03631591796875 239.0649871826171875 239.0706787109375
122.25392913818359375 124.45151519775390625 125.40747833251953125 124.4899139404296875 122.29083251953125 117.37569427490234375 110.0803375244140625 115.254974365234375 124.5809326171875 133.767578125 141.972381591796875 149.231597900390625 156.1616668701171875 160.7932891845703125 161.800872802734375 163.259185791015625 165.6038818359375 168.2901611328125 170.06494140625 170.464935302734375 170.707275390625 170.7335052490234375 170.531402587890625 169.669036865234375 168.3445587158203125 166.3612823486328125 166.50238037109375 157.3153228759765625 143.55474853515625 128.9314727783203125 125.536834716796875 123.96443939208984375 123.5579986572265625 123.30277252197265625 122.150146484375 118.35357666015625 113.98751068115234375 111.34812164306640625 109.827728271484375 112.5922698974609375 119.502166748046875 127.9737396240234375 138.684814453125 152.342987060546875 162.4500885009765625 171.2288970947265625 174.7899627685546875 178.652069091796875 183.2920684814453125 185.29248046875 186.427490234375 188.1848602294921875 189.7771759033203125 190 190.174041748046875 190.7438201904296875 191.2023468017578125 190.7643890380859375 189.77838134765625 189.302215576171875 188.8919677734375 188.709075927734375 188.911285400390625 189.6445465087890625 190.66595458984375 191.7528533935546875 192.83416748046875 194.06549072265625 194.9537353515625 195.0005645751953125 195.0046844482421875 195.0034637451171875 194.055816650390625 191.366180419921875 182.0465240478515625 175.0030670166015625 170.4889678955078125 169.9860687255859375 169.999176025390625 170.7457733154296875 175.8227691650390625 180.4652862548828125 186.5091552734375 190.089019775390625 195.1739959716796875 200.5848236083984375 206.745361328125 212.3013458251953125 215.574951171875 218.7957000732421875 219.993621826171875 220 220 220.07635498046875 221.08111572265625 222.7881317138671875 224.733489990234375 226.5959320068359375 228.8694915771484375 230.0456390380859375 230.369049072265625 230.279449462890625 222.4652862548828125 207.40093994140625 194.73187255859375 181.9576873779296875 170.00738525390625 160.6911468505859375 159.4326629638671875 167.9528656005859375 177.7707672119140625 185.07745361328125 186.2449798583984375 186.3569488525390625 187.9382781982421875 187.14923095703125 188.9719696044921875 196.0383453369140625 206.7068328857421875 213.136627197265625 223.323638916015625 234.961029052734375 248.4459686279296875 250.155426025390625 249.9333343505859375 245.0835418701171875 236.320526123046875 219.901275634765625 206.52130126953125 188.6948699951171875 180.216461181640625 172.9239654541015625 174.7667999267578125 176.3680877685546875 177.7001953125 173.0981292724609375 168.5026702880859375 167.411590576171875 168.775238037109375 168.3719940185546875 166.548095703125 166.0464324951171875 163.733551025390625 160.870391845703125 160.0413360595703125 160 160.0044097900390625 163.3073883056640625 170.5605316162109375 181.7303009033203125 192.641815185546875 206.7134857177734375 212.661041259765625 214.03558349609375 211.53497314453125 207.2110595703125 201.441925048828125 195.520599365234375 190.2230072021484375 190.1037445068359375 190.1309051513671875 190.12261962890625 190.0898284912109375 191.0149078369140625 194.1830596923828125 197.4374847412109375 198.691741943359375 199.8108673095703125 200.1628570556640625 200.559234619140625 200.9235076904296875 201.700714111328125 202.6343231201171875 203.6684112548828125 204.5625457763671875 205.5859832763671875 207.1980743408203125 208.682891845703125 210.5614166259765625 211.7065887451171875 213.224578857421875 214.5699005126953125 215.8345947265625 217.2173309326171875 218.8808441162109375 220.444122314453125 221.5240020751953125 223.9311676025390625 226.2198333740234375 229.320068359375 231.00750732421875 233.4885711669921875 234.731201171875 234.4287261962890625 233.789825439453125 233.238922119140625 232.7077484130859375 232.3072357177734375 231.9349822998046875 231.893951416015625 232.2301177978515625 232.5890350341796875 233.1103057861328125 233.9741668701171875 235.1258544921875 235.972808837890625 236.39825439453125 236.70068359375 237.0714263916015625 237.8271026611328125 238.34722900390625 238.7272796630859375 238.7993621826171875 238.745391845703125
120.76126861572265625 120.78690338134765625 121.644927978515625 121.3159027099609375 119.056396484375 113.1687774658203125 109.860321044921875 117.01706695556640625 124.53531646728515625 131.0282745361328125 139.564208984375 147.767120361328125 155.2097015380859375 160.91680908203125 162.167205810546875 164.235931396484375 166.493408203125 168.591705322265625 170.001708984375 170.450836181640625 170.4391021728515625 170.192596435546875 164.9706268310546875 158.2913360595703125 150.7054595947265625 146.84027099609375 144.209014892578125 137.767120361328125 127.0824432373046875 120.40763092041015625 116.9961395263671875 114.04843902587890625 111.64365386962890625 109.22847747802734375 106.54742431640625 104.9128875732421875 107.8067169189453125 109.75601959228515625 113.8823394775390625 119.3274688720703125 129.1138458251953125 134.5139617919921875 147.2808837890625 170.16876220703125 173.2105865478515625 175.8264312744140625 178.170013427734375 180.5403594970703125 183.1985931396484375 185.08966064453125 185.969268798828125 187.3640899658203125 188.927947998046875 189.8823089599609375 189.9449462890625 189.948883056640625 189.921875 189.499908447265625 188.9183349609375 188.580078125 188.356170654296875 188.2120513916015625 188.45587158203125 189.79449462890625 190.7996368408203125 191.74676513671875 192.749755859375 193.946258544921875 194.8758392333984375 195 195 194.836395263671875 192.9006805419921875 189.52783203125 179.981781005859375 173.9743499755859375 169.9276275634765625 169.4637603759765625 169.8566741943359375 172.2866058349609375 178.710723876953125 183.541717529296875 189.718353271484375 192.3675994873046875 196.8418426513671875 202.1909637451171875 208.24371337890625 213.736297607421875 217.882904052734375 219.9522705078125 220 220 219.85626220703125 219.79864501953125 220.6831512451171875 222.1790924072265625 224.009521484375 225.8077239990234375 228.0909271240234375 229.73004150390625 230 226.012359619140625 209.886993408203125 198.078887939453125 186.18011474609375 174.9107513427734375 164.527191162109375 155.064666748046875 155.2932281494140625 165.031585693359375 172.910614013671875 180.8899688720703125 181.33001708984375 179.310821533203125 174.1662139892578125 172.3620452880859375 175.9517974853515625 184.1629638671875 193.7178802490234375 199.2307586669921875 208.1477813720703125 218.8455657958984375 234.4368743896484375 244.56427001953125 249.89935302734375 248.890228271484375 240.4253997802734375 224.0407867431640625 210.3260955810546875 191.120330810546875 181.55535888671875 170.5721435546875 168.4211273193359375 168.1182708740234375 168.793365478515625 167.2791290283203125 164.4332122802734375 162.72021484375 164.9274749755859375 164.5839080810546875 161.47216796875 160.3629150390625 159.9695892333984375 159.9998779296875 160 160.0324554443359375 160.132720947265625 164.41387939453125 172.00115966796875 181.636505126953125 192.0755157470703125 205.406036376953125 210.4073638916015625 211.063568115234375 209.291015625 205.164947509765625 199.9476165771484375 195.4034881591796875 190.46881103515625 189.8766632080078125 189.713958740234375 189.6703033447265625 189.819915771484375 191.1877593994140625 193.6390838623046875 196.3154754638671875 198.3970184326171875 200.0587310791015625 200.4324493408203125 201.0572662353515625 201.5851898193359375 202.3538818359375 203.095428466796875 203.9224700927734375 204.665771484375 205.6286468505859375 207.099273681640625 208.354034423828125 210.0467529296875 211.3074493408203125 212.7894287109375 213.9713287353515625 215.273040771484375 216.9212646484375 218.7052459716796875 220.2607574462890625 221.0459136962890625 222.9492034912109375 224.9774017333984375 227.721466064453125 229.4597015380859375 231.5916748046875 232.536285400390625 232.992919921875 232.6955108642578125 232.254425048828125 231.710174560546875 231.249481201171875 230.7039642333984375 230.5182037353515625 230.6744842529296875 230.6772613525390625 231.00592041015625 231.8010101318359375 233.125946044921875 234.590576171875 235.4388580322265625 235.904144287109375 236.5197906494140625 237.5291748046875 238.0849761962890625 238.452728271484375 238.50482177734375 238.3659210205078125
118.6988067626953125 118.2957916259765625 117.981964111328125 117.25933074951171875 114.636505126953125 108.382720947265625 106.0545806884765625 116.7480010986328125 124.42609405517578125 131.0797576904296875 139.079498291015625 149.7564849853515625 158.2539520263671875 161.2383575439453125 162.9456634521484375 165.8673553466796875 168.286773681640625 169.69842529296875 170.8433990478515625 171.55908203125 170.982574462890625 169.7994384765625 157.1082916259765625 149.0432281494140625 140.9019012451171875 136.968109130859375 134.6250762939453125 128.6854095458984375 117.98256683349609375 112.72212982177734375 106.42646026611328125 101.0540618896484375 99.4874267578125 98.761199951171875 99.084869384765625 101.30876922607421875 107.60201263427734375 112.12195587158203125 120.44768524169921875 125.65035247802734375 132.73699951171875 139.1651153564453125 157.8383331298828125 172.9099273681640625 175.0503997802734375 176.2691497802734375 178.1557464599609375 180.2712860107421875 182.98822021484375 184.797027587890625 184.4123687744140625 184.951751708984375 186.2367095947265625 186.8167572021484375 187.4651641845703125 188.1293487548828125 188.4419403076171875 188.3371124267578125 187.943389892578125 187.8178558349609375 187.901458740234375 188.086517333984375 188.8757781982421875 190.0416107177734375 190.7250518798828125 191.568450927734375 192.461212158203125 193.5184326171875 194.3884124755859375 194.93365478515625 194.8502197265625 193.59869384765625 191.1596221923828125 184.3660736083984375 177.5656890869140625 172.73150634765625 167.9056549072265625 166.459869384765625 168.64453125 173.98150634765625 182.1526641845703125 187.3567657470703125 191.1775360107421875 194.0415496826171875 197.5142364501953125 202.347503662109375 208.0610198974609375 213.2351837158203125 216.851593017578125 219.3288421630859375 219.499114990234375 217.2018585205078125 215.22589111328125 215.2080841064453125 218.3390045166015625 221.206268310546875 222.980804443359375 224.7397308349609375 227.044189453125 229.0335693359375 228.5230712890625 216.6798248291015625 203.3761444091796875 191.77215576171875 180.5284423828125 169.7469482421875 160.969268798828125 151.27264404296875 153.193572998046875 164.0646514892578125 171.050201416015625 179.980804443359375 179.959625244140625 175.889862060546875 170.45001220703125 169.063873291015625 170.7553253173828125 175.0542449951171875 180.152252197265625 185.7574615478515625 196.4015350341796875 207.5410308837890625 222.3565521240234375 233.785247802734375 244.6785888671875 248.664886474609375 242.46966552734375 225.9681549072265625 213.7030181884765625 196.80712890625 183.485626220703125 170.866363525390625 164.9820556640625 162.3951568603515625 163.189788818359375 162.2529144287109375 159.876007080078125 159.202972412109375 160.65380859375 160.5451812744140625 158.9794921875 158.4678192138671875 159.8223419189453125 162.6768951416015625 163.9708404541015625 165.0454254150390625 168.3694000244140625 169.472320556640625 173.8058319091796875 181.454559326171875 189.94891357421875 203.2337799072265625 209.245208740234375 208.7683868408203125 204.8605194091796875 201.462005615234375 198.1168365478515625 193.8215179443359375 190.0730438232421875 189.6479949951171875 189.34405517578125 189.2029266357421875 189.641143798828125 191.3248291015625 193.799774169921875 196.3000946044921875 198.26971435546875 200.0716400146484375 200.641632080078125 201.5540618896484375 202.2033843994140625 202.9769287109375 203.5402679443359375 204.180419921875 204.77862548828125 205.6805419921875 207.1352996826171875 208.32177734375 209.7515716552734375 210.872100830078125 212.2552642822265625 213.364349365234375 214.544464111328125 216.0393218994140625 217.676177978515625 219.2378387451171875 220.08709716796875 221.42730712890625 223.1035919189453125 225.5693359375 227.4454345703125 229.596405029296875 230.1966705322265625 231.4663543701171875 231.336883544921875 230.968475341796875 230.4536895751953125 230.01947021484375 229.5660552978515625 229.4411773681640625 229.419769287109375 229.41748046875 229.5255889892578125 229.7618255615234375 230.3855743408203125 232.170440673828125 233.6408843994140625 235.096435546875 236.0621185302734375 237.3091278076171875 237.8737640380859375 238.18975830078125 238.1728363037109375 237.9108734130859375
116.26914215087890625 116.24002838134765625 115.64884185791015625 114.24493408203125 111.4018402099609375 104.12645721435546875 105.56043243408203125 117.68646240234375 124.97979736328125 132.1941070556640625 139.94342041015625 151.67547607421875 159.0621185302734375 162.2122802734375 164.4101715087890625 167.50762939453125 169.7465362548828125 170.5576324462890625 171.6496734619140625 172.4198760986328125 171.3824615478515625 168.4630889892578125 153.359649658203125 144.9760894775390625 137.446624755859375 131.94195556640625 126.1701812744140625 117.68398284912109375 111.70258331298828125 103.33709716796875 98.49571990966796875 97.0379180908203125 96.1717071533203125 95.45188140869140625 97.68579864501953125 104.170806884765625 112.56157684326171875 118.62274169921875 123.77190399169921875 128.1494598388671875 135.6673431396484375 145.8538055419921875 164.761138916015625 173.4784088134765625 174.540924072265625 175.5272369384765625 176.9607086181640625 178.789520263671875 180.8294830322265625 181.2474517822265625 179.68963623046875 179.0838775634765625 179.402374267578125 180.9733734130859375 184.9050140380859375 186.3850250244140625 186.8714752197265625 186.924652099609375 186.7705230712890625 186.89599609375 187.376800537109375 188.0879058837890625 189.4393310546875 190.0475006103515625 190.476165771484375 191.2137908935546875 192.0386810302734375 192.951019287109375 193.5550689697265625 193.8607330322265625 193.631591796875 192.546539306640625 190.4416961669921875 182.4089813232421875 176.5783843994140625 171.985076904296875 166.0863037109375 161.971160888671875 167.706268310546875 174.6573333740234375 183.573699951171875 189.22430419921875 191.976318359375 194.73126220703125 197.8695068359375 201.92059326171875 206.7640228271484375 211.4948577880859375 214.1395111083984375 216.2884368896484375 216.1597900390625 212.39788818359375 209.165008544921875 208.784454345703125 212.7003021240234375 219.211883544921875 221.7951812744140625 223.441619873046875 225.569366455078125 227.35302734375 222.8426971435546875 209.7334442138671875 197.1958160400390625 185.8377685546875 174.965087890625 165.1118011474609375 156.44439697265625 150.13983154296875 152.963653564453125 163.6482696533203125 170.13165283203125 178.395660400390625 179.8255615234375 176.0806121826171875 169.0139923095703125 165.559967041015625 166.4911956787109375 168.864837646484375 170.7549591064453125 172.339447021484375 179.2332916259765625 192.9307861328125 208.57720947265625 220.3006439208984375 231.420684814453125 237.5471649169921875 238.679412841796875 227.471893310546875 217.60791015625 203.7530517578125 187.7263031005859375 173.429443359375 164.502655029296875 159.5733184814453125 157.73236083984375 156.71435546875 154.8798980712890625 154.9015350341796875 156.5621185302734375 158.371002197265625 159.373809814453125 159.8990631103515625 164.136077880859375 170.5761566162109375 173.3993377685546875 174.49615478515625 176.403717041015625 176.7572784423828125 178.406341552734375 181.923553466796875 188.5397186279296875 198.28790283203125 204.0238494873046875 204.2060394287109375 200.7308502197265625 198.3155670166015625 194.8794097900390625 191.39166259765625 189.837554931640625 189.675384521484375 189.4952239990234375 189.41326904296875 189.653167724609375 191.526458740234375 194.867645263671875 196.9879302978515625 198.3582305908203125 199.82354736328125 200.96759033203125 202.21630859375 202.63055419921875 202.8630218505859375 203.290679931640625 203.944915771484375 204.738037109375 205.765625 207.2334442138671875 208.4229888916015625 209.7145843505859375 210.55963134765625 211.790130615234375 212.8305511474609375 214.0348968505859375 215.175994873046875 216.3012542724609375 217.6645660400390625 218.690643310546875 219.8199615478515625 221.1531219482421875 223.62933349609375 225.49981689453125 227.58453369140625 229.009368896484375 230.1933441162109375 230.2000885009765625 229.92498779296875 229.56103515625 229.232025146484375 228.84130859375 228.7173309326171875 228.66876220703125 228.7191314697265625 228.9401092529296875 229.30694580078125 229.798919677734375 231.1727447509765625 232.79742431640625 234.58502197265625 235.776153564453125 237.1988983154296875 237.8412628173828125 238.120880126953125 238.013397216796875 237.651336669921875
113.521759033203125 114.24329376220703125 113.81284332275390625 111.1969757080078125 105.5419769287109375 100.76103973388671875 107.1676025390625 119.8219451904296875 125.791717529296875 133.01123046875 140.163238525390625 152.539642333984375 160.0520477294921875 163.8494720458984375 166.117919921875 167.9860992431640625 169.9397735595703125 170.8136444091796875 171.630950927734375 171.895477294921875 171.245330810546875 168.250946044921875 154.0221405029296875 145.1039886474609375 136.0092620849609375 126.48574066162109375 117.61862945556640625 111.4501190185546875 104.22975921630859375 97.473846435546875 95.32941436767578125 94.05887603759765625 93.06221771240234375 91.94716644287109375 95.040924072265625 104.410491943359375 114.91336822509765625 121.687042236328125 126.31800079345703125 132.074554443359375 143.47662353515625 155.036102294921875 169.2838287353515625 174.17266845703125 174.08880615234375 174.5738983154296875 175.4521484375 176.4144287109375 177.7643280029296875 177.886932373046875 176.87518310546875 176.372100830078125 176.388427734375 179.882415771484375 184.606689453125 185.4723358154296875 185.78839111328125 185.7709808349609375 185.580535888671875 185.98614501953125 186.9061279296875 188.003265380859375 189.384033203125 189.8965301513671875 190.11700439453125 190.6922760009765625 191.45135498046875 192.10888671875 192.4180755615234375 192.490325927734375 192.231170654296875 191.54119873046875 190.0356903076171875 182.5738067626953125 177.03961181640625 173.035736083984375 167.1794281005859375 160.511993408203125 166.215972900390625 173.5880584716796875 182.062286376953125 188.127166748046875 192.32708740234375 195.1761932373046875 198.322174072265625 202.1673126220703125 206.366455078125 210.0608062744140625 211.155487060546875 212.0260772705078125 211.080078125 207.35357666015625 202.866668701171875 200.79156494140625 204.6597900390625 210.9251251220703125 217.644012451171875 221.05926513671875 222.91693115234375 223.3349761962890625 217.1490631103515625 204.08233642578125 192.5503387451171875 181.6796875 169.872314453125 161.12225341796875 152.2861785888671875 149.7459564208984375 151.6898040771484375 161.078704833984375 167.471221923828125 174.181732177734375 178.03643798828125 178.01495361328125 170.02362060546875 161.3193511962890625 162.1519775390625 164.0769195556640625 164.512115478515625 164.8860015869140625 169.867462158203125 179.5405120849609375 196.2889862060546875 208.325103759765625 218.188751220703125 224.46575927734375 230.057708740234375 226.8312530517578125 219.430938720703125 205.0251007080078125 191.7617950439453125 176.8955841064453125 166.6051177978515625 158.41241455078125 152.1092681884765625 150.8343658447265625 150.249481201171875 150.2708282470703125 151.461334228515625 156.0565032958984375 159.940765380859375 166.9151611328125 174.6283721923828125 179.1453857421875 181.826202392578125 184.0062103271484375 185.1107330322265625 184.9787750244140625 184.186309814453125 185.26763916015625 189.113037109375 195.43231201171875 199.6204376220703125 200.2126312255859375 197.74365234375 195.855987548828125 191.218536376953125 190.020751953125 189.9047698974609375 189.8195953369140625 189.72796630859375 189.6909637451171875 189.740753173828125 191.41033935546875 196.0123443603515625 197.4624481201171875 198.5314483642578125 199.8129730224609375 201.8432159423828125 202.64886474609375 202.31939697265625 201.955291748046875 202.3928985595703125 203.2280731201171875 204.447174072265625 205.7681884765625 207.340118408203125 208.6163482666015625 209.878204345703125 210.4744873046875 211.447174072265625 212.35577392578125 213.4076995849609375 214.3098907470703125 215.0262451171875 216.2761383056640625 217.20220947265625 218.2099761962890625 219.3385772705078125 221.724945068359375 223.6240081787109375 225.92547607421875 227.69073486328125 228.96435546875 229.10614013671875 228.95867919921875 228.6617584228515625 228.3525543212890625 227.9682159423828125 227.858245849609375 227.8125152587890625 227.862945556640625 228.1902008056640625 228.7556610107421875 229.537506103515625 230.7327728271484375 232.2479248046875 233.9945220947265625 235.2708282470703125 237.0068817138671875 237.98480224609375 238.1963043212890625 237.866607666015625 237.3870697021484375
-9999 112.70583343505859375 111.566070556640625 108.06151580810546875 101.64702606201171875 100.84969329833984375 108.890533447265625 120.9147186279296875 125.79386138916015625 132.742706298828125 139.5201568603515625 152.3618927001953125 161.055694580078125 165.52606201171875 167.3429107666015625 167.91595458984375 169.6779937744140625 171.48345947265625 172.3828277587890625 172.500640869140625 171.6513214111328125 169.956268310546875 157.4530487060546875 145.3068389892578125 133.5517730712890625 122.20108795166015625 112.2180328369140625 104.9028778076171875 98.73210906982421875 93.58860015869140625 91.494598388671875 91.024871826171875 90.51290130615234375 90.0558013916015625 93.226043701171875 103.975982666015625 117.6440582275390625 123.7342376708984375 128.1459503173828125 134.663055419921875 148.732666015625 159.425933837890625 171.3775177001953125 174.6146240234375 174.495880126953125 174.578216552734375 174.896820068359375 174.8820343017578125 174.9949798583984375 175.31494140625 175.060394287109375 174.8579254150390625 175.3083343505859375 177.8876190185546875 182.1270751953125 184.7586517333984375 185.0750885009765625 185.041290283203125 185.0000152587890625 185.3216400146484375 186.41961669921875 187.4214935302734375 188.395111083984375 189.0316162109375 189.57330322265625 190.1070556640625 190.8110504150390625 191.29656982421875 191.5078125 191.5147552490234375 191.2927398681640625 190.7700653076171875 189.09783935546875 183.1373443603515625 178.4660491943359375 174.9134063720703125 169.6303253173828125 161.744537353515625 162.988616943359375 170.3709564208984375 179.7328033447265625 186.7830963134765625 192.242218017578125 195.3145599365234375 198.63067626953125 202.77996826171875 206.9654541015625 209.9450225830078125 210.0895843505859375 209.614105224609375 207.0205078125 202.881744384765625 198.4419708251953125 196.804901123046875 200.0525970458984375 203.6904296875 206.9579010009765625 213.9481658935546875 219.9144134521484375 218.1844482421875 207.30401611328125 196.5460968017578125 187.5059356689453125 177.3798065185546875 166.5793304443359375 157.632415771484375 149.922119140625 147.4432830810546875 148.64654541015625 157.6999053955078125 164.133087158203125 170.17657470703125 173.601287841796875 173.431915283203125 167.706207275390625 158.994171142578125 156.5754852294921875 159.438812255859375 156.553741455078125 156.0762786865234375 164.4405059814453125 171.28326416015625 180.6840972900390625 195.4405975341796875 205.8890380859375 212.355194091796875 218.6297454833984375 221.927642822265625 219.46832275390625 208.35345458984375 196.1821441650390625 179.6365203857421875 167.446929931640625 156.2610321044921875 149.8847198486328125 149.7806549072265625 149.9207611083984375 149.9968719482421875 151.667083740234375 157.75762939453125 164.78436279296875 174.3768310546875 182.0982666015625 186.565887451171875 188.5627593994140625 191.757659912109375 194.1918487548828125 192.607421875 191.3213348388671875 190.2923126220703125 191.906219482421875 196.1708221435546875 199.252227783203125 199.535858154296875 196.3713836669921875 193.8995819091796875 190.275787353515625 190.0336761474609375 190.002593994140625 189.965545654296875 189.922607421875 189.89703369140625 189.8952789306640625 191.1699066162109375 195.2126312255859375 197.299072265625 198.58441162109375 200.0609283447265625 201.3306427001953125 201.7283172607421875 201.2544403076171875 200.6938934326171875 201.01605224609375 202.006561279296875 203.83319091796875 205.5321197509765625 207.21429443359375 208.5228271484375 209.8508758544921875 210.2719268798828125 211.0152587890625 211.7578582763671875 212.6343994140625 213.500701904296875 214.34765625 215.2084808349609375 215.7111663818359375 216.269073486328125 217.5959930419921875 220.16656494140625 222.2274932861328125 224.78265380859375 226.7248077392578125 227.9694366455078125 228.137054443359375 228.0396270751953125 227.8060455322265625 227.5355377197265625 227.20172119140625 227.08172607421875 226.9897918701171875 227.013458251953125 227.418212890625 228.2285614013671875 229.368133544921875 230.7063751220703125 232.077911376953125 233.7703704833984375 234.9948883056640625 236.477325439453125 237.499481201171875 237.7875213623046875 237.5919342041015625 237.318878173828125
-9999 -9999 -9999 -9999 100.23017120361328125 101.26174163818359375 109.61754608154296875 119.604705810546875 123.499267578125 132.19097900390625 139.4192657470703125 152.00518798828125 162.4466094970703125 168.34259033203125 169.4337921142578125 169.9405975341796875 171.588104248046875 173.09234619140625 173.993011474609375 173.95550537109375 172.6831512451171875 170.545623779296875 155.83184814453125 141.7098236083984375 129.4355621337890625 119.0553131103515625 109.4289703369140625 101.729217529296875 95.9096221923828125 90.77835845947265625 89.83221435546875 89.70008087158203125 89.62673187255859375 89.7786712646484375 92.7111358642578125 103.7018280029296875 119.45856475830078125 125.4595947265625 130.71417236328125 137.3338165283203125 153.2310791015625 163.3852691650390625 170.676727294921875 174.3988494873046875 174.859588623046875 174.526580810546875 174.053375244140625 173.488128662109375 173.53326416015625 174.1880035400390625 174.83251953125 175.4669189453125 176.586273193359375 178.30926513671875 180.5153045654296875 182.59564208984375 183.9052886962890625 184.7115020751953125 184.996795654296875 185.1345672607421875 185.8127899169921875 186.5522003173828125 187.3562469482421875 188.0846405029296875 188.79522705078125 189.58197021484375 190.1907806396484375 190.600860595703125 190.7418670654296875 190.730926513671875 190.5617828369140625 190.213409423828125 189.4847564697265625 186.1169281005859375 182.2823028564453125 177.73944091796875 171.9559173583984375 164.3625335693359375 160.45428466796875 166.995849609375 176.8563079833984375 184.3229522705078125 191.8586273193359375 195.4420318603515625 199.0342254638671875 203.334991455078125 207.542510986328125 209.97674560546875 209.8741302490234375 206.0907745361328125 201.741363525390625 196.9686279296875 191.682952880859375 189.0983123779296875 191.618682861328125 193.2813262939453125 195.4734344482421875 199.2778167724609375 201.70050048828125 198.5394134521484375 188.098114013671875 182.42181396484375 177.78082275390625 170.3650665283203125 161.9132843017578125 154.1126556396484375 148.00445556640625 142.4000701904296875 143.5862274169921875 152.433258056640625 159.321929931640625 165.8771820068359375 169.7633514404296875 170.3481292724609375 167.8885345458984375 160.5767822265625 151.1757354736328125 150.375244140625 146.805938720703125 149.28509521484375 160.1352081298828125 165.87408447265625 172.4885711669921875 182.0485382080078125 196.7468109130859375 203.8116455078125 208.218170166015625 214.689849853515625 215.0747528076171875 208.66888427734375 199.8206939697265625 182.8302764892578125 166.3675537109375 152.5228729248046875 149.4813232421875 149.4241180419921875 149.759796142578125 149.9862060546875 152.3506622314453125 160.3337554931640625 170.1960296630859375 179.6655120849609375 188.4534149169921875 199.1421661376953125 205.85833740234375 209.47735595703125 210.093505859375 201.348388671875 198.171142578125 196.365325927734375 196.8594970703125 199.28033447265625 200.202178955078125 199.8365478515625 196.691650390625 193.49493408203125 190.2736968994140625 190.07696533203125 190.092864990234375 190.0888519287109375 190.0805816650390625 190.060546875 190.0223236083984375 191.382476806640625 194.752105712890625 197.0749969482421875 198.6567535400390625 200.0578155517578125 200.4809112548828125 200.6751556396484375 200.336669921875 200.017425537109375 200.0641937255859375 200.76678466796875 203.055694580078125 205.1839447021484375 206.60528564453125 207.6761932373046875 208.9996185302734375 209.7175445556640625 210.3926849365234375 211.163421630859375 211.996856689453125 212.8003692626953125 213.56488037109375 214.321044921875 214.63397216796875 214.948822021484375 216.33917236328125 219.581634521484375 221.4895782470703125 224.0402069091796875 226.084991455078125 227.169921875 227.21978759765625 227.1732940673828125 227.0045623779296875 226.7721099853515625 226.494476318359375 226.3568572998046875 226.2429962158203125 226.1815643310546875 226.5005340576171875 227.3761444091796875 228.59967041015625 230.4987945556640625 231.9622344970703125 233.580657958984375 234.624298095703125 235.490386962890625 236.1586456298828125 236.7780303955078125 237.0419464111328125 237.01312255859375
-9999 -9999 -9999 -9999 -9999 101.6657867431640625 109.41585540771484375 117.8773345947265625 121.91861724853515625 131.254638671875 138.9082183837890625 153.5008697509765625 163.0727996826171875 169.8114166259765625 170.3209686279296875 171.55828857421875 173.4425811767578125 175.1612396240234375 176.2041015625 176.1915435791015625 173.9524078369140625 168.128448486328125 148.366607666015625 133.90765380859375 124.78936004638671875 116.40845489501953125 107.82549285888671875 100.32958221435546875 93.91225433349609375 89.7398834228515625 89.39469146728515625 89.2105560302734375 89.05179595947265625 89.26651763916015625 92.965087890625 104.1877288818359375 118.9179229736328125 124.687103271484375 133.1090545654296875 141.1496429443359375 156.829132080078125 164.8949127197265625 170.657684326171875 172.815093994140625 173.2626800537109375 172.443634033203125 171.8482513427734375 171.7359619140625 172.14990234375 173.2341156005859375 174.472381591796875 175.9224395751953125 177.1920318603515625 178.69085693359375 179.8773956298828125 180.4671478271484375 181.45361328125 182.992462158203125 184.71014404296875 185.0121917724609375 185.226837158203125 185.6773834228515625 186.4044189453125 187.227783203125 188.0285491943359375 189.0393524169921875 189.925048828125 190.1565399169921875 190.264251708984375 190.2703094482421875 190.1806488037109375 190.0325775146484375 190.0001068115234375 189.59930419921875 187.1575164794921875 179.8150634765625 173.0185394287109375 165.426788330078125 160.021575927734375 163.90625 174.3935546875 182.7014312744140625 192.1914825439453125 196.184844970703125 199.877960205078125 203.5822906494140625 207.1032562255859375 209.954620361328125 209.391143798828125 203.5193939208984375 198.9054107666015625 193.788818359375 188.2220306396484375 182.7625274658203125 184.42572021484375 185.706451416015625 186.8342437744140625 188.873565673828125 188.3475494384765625 184.4552001953125 176.51300048828125 171.977447509765625 169.0774688720703125 164.49041748046875 158.4683380126953125 151.8533935546875 146.640167236328125 141.0810394287109375 140.44061279296875 146.977813720703125 154.097442626953125 162.245086669921875 167.890228271484375 170 169.4979095458984375 164.211700439453125 153.8755340576171875 147.205169677734375 140.7022247314453125 143.4078521728515625 154.1561279296875 161.64581298828125 167.107086181640625 172.8077392578125 181.658843994140625 188.2655181884765625 193.960723876953125 199.4771575927734375 203.5406951904296875 203.729522705078125 198.12188720703125 184.2384033203125 165.4515228271484375 151.66845703125 149.160888671875 148.8762359619140625 150.3553009033203125 152.7769775390625 156.2937469482421875 161.5423583984375 171.140045166015625 181.1717987060546875 191.3770294189453125 206.60943603515625 221.409515380859375 223.2618408203125 219.2123565673828125 209.5068206787109375 205.4650726318359375 203.2759246826171875 203.0484161376953125 204.9245147705078125 203.0080413818359375 199.826751708984375 196.3343658447265625 192.97308349609375 190.132110595703125 190.10687255859375 190.1680145263671875 190.201019287109375 190.2413177490234375 190.241851806640625 190.138458251953125 191.88201904296875 195.1063232421875 197.4926910400390625 199.20758056640625 200.0010986328125 200.0284881591796875 200.0438995361328125 200.0037841796875 199.98846435546875 199.993621826171875 200.0233612060546875 200.9009246826171875 203.5322113037109375 205.3667449951171875 206.1053924560546875 207.5001220703125 208.8072509765625 209.8824462890625 210.4910736083984375 211.1649932861328125 211.8069000244140625 212.3740386962890625 212.81640625 213.2106475830078125 214.166168212890625 215.5851287841796875 219.234161376953125 221.392303466796875 223.6939849853515625 225.4007568359375 226.06640625 226.1679534912109375 226.1771240234375 226.095703125 225.908477783203125 225.6985015869140625 225.664825439453125 225.7122955322265625 225.8576812744140625 226.2128143310546875 226.5791778564453125 227.4332427978515625 230.283111572265625 231.8874969482421875 233.2076873779296875 233.977020263671875 234.8047943115234375 235.4451141357421875 236.241729736328125 236.592926025390625 236.552642822265625
-9999 -9999 -9999 -9999 -9999 -9999 -9999 -9999 122.42563629150390625 129.8675994873046875 138.2393798828125 153.9316558837890625 162.9055633544921875 170.025146484375 170.8874969482421875 172.4886016845703125 174.6767425537109375 177.1007843017578125 179.3302001953125 180.4601593017578125 174.29949951171875 162.8606414794921875 138.040924072265625 125.78192901611328125 117.70421600341796875 109.57623291015625 104.32521820068359375 99.41454315185546875 92.75653839111328125 88.995208740234375 88.98944854736328125 88.9798126220703125 88.7384490966796875 88.91089630126953125 94.7409515380859375 105.1261749267578125 117.59294891357421875 120.93030548095703125 134.0947113037109375 145.81536865234375 158.66448974609375 165.3904266357421875 169.38653564453125 170.4606170654296875 170.39141845703125 169.71795654296875 169.4534149169921875 169.9299163818359375 170.61566162109375 172.4560699462890625 174.385589599609375 176.1904449462890625 177.51397705078125 178.907684326171875 179.8313446044921875 180 180.2061767578125 181.832794189453125 183.943695068359375 184.822357177734375 184.7277374267578125 184.9122161865234375 185.559356689453125 186.269378662109375 186.9251861572265625 188.0034637451171875 189.4397125244140625 190.0014495849609375 190.018157958984375 190.02520751953125 190.0092620849609375 190 190 190 189.6024627685546875 182.3427734375 174.0828094482421875 167.4527587890625 160.0756378173828125 161.84503173828125 172.64105224609375 182.9700927734375 193.334259033203125 197.952484130859375 201.6101837158203125 204.752197265625 207.28131103515625 208.8916778564453125 205.9463653564453125 199.33984375 195.028350830078125 190.8148193359375 185.677947998046875 180.439056396484375 178.23583984375 179.218902587890625 181.396209716796875 181.7108917236328125 180.75665283203125 175.1926116943359375 164.9961395263671875 159.7308502197265625 157.440185546875 157.0621185302734375 153.925445556640625 149.013427734375 144.7415313720703125 140.5320281982421875 139.999176025390625 141.76348876953125 149.74493408203125 160.688507080078125 167.2180633544921875 170 169.63189697265625 165.470306396484375 157.888336181640625 150.8711395263671875 141.5586090087890625 140.314544677734375 146.9358978271484375 154.6200408935546875 161.675445556640625 166.1943511962890625 170.19158935546875 172.7561187744140625 176.7926025390625 178.8200531005859375 183.0774993896484375 190.709930419921875 190.3227081298828125 180.7635345458984375 163.7894744873046875 151.179229736328125 149.515655517578125 149.4535675048828125 153.826812744140625 159.26513671875 163.06475830078125 165.309356689453125 173.2599029541015625 183.614288330078125 193.1110687255859375 205.871917724609375 219.9437255859375 224.9354705810546875 223.53009033203125 219.6225433349609375 215.157684326171875 211.60333251953125 210.24658203125 209.818695068359375 205.8840789794921875 199.9202117919921875 195.9288330078125 192.9914093017578125 190.298370361328125 190.091766357421875 190.18499755859375 190.254180908203125 190.352081298828125 190.385009765625 190.18310546875 192.6334381103515625 195.5648651123046875 197.946441650390625 199.616363525390625 199.9522857666015625 199.877471923828125 199.7750244140625 199.79364013671875 199.855255126953125 199.9166412353515625 199.978485107421875 200.0142822265625 200.8041534423828125 203.610565185546875 204.9778594970703125 206.5927276611328125 207.9821624755859375 209.4947662353515625 210.07635498046875 210.44427490234375 210.987335205078125 211.4217071533203125 211.661773681640625 211.9418182373046875 213.3524932861328125 215.3740997314453125 219.010498046875 221.186920166015625 223.2143402099609375 224.365020751953125 225.0005645751953125 225.3040008544921875 225.4002227783203125 225.3490753173828125 225.2022705078125 225.0645599365234375 225.1625213623046875 225.39056396484375 225.7423248291015625 226.33978271484375 227.05059814453125 228.0709991455078125 230.5029754638671875 231.815673828125 232.80938720703125 233.51605224609375 234.42352294921875 235.11065673828125 235.9312591552734375 236.3482513427734375 236.24346923828125
-9999 -9999 -9999 -9999 -9999 -9999 -9999 -9999 -9999 128.95166015625 137.079620361328125 151.4119873046875 160.8252716064453125 169.203369140625 170.970550537109375 172.627655029296875 174.8195953369140625 177.2230072021484375 179.7176361083984375 181.143707275390625 174.604705810546875 158.1641693115234375 132.474334716796875 119.9200897216796875 108.51654052734375 101.92186737060546875 98.81388092041015625 95.41211700439453125 90.4173583984375 88.568511962890625 88.82068634033203125 89.0158233642578125 89.1858978271484375 90.998626708984375 96.5948028564453125 103.58565521240234375 114.51035308837890625 119.6654052734375 134.33721923828125 147.8866729736328125 161.2694854736328125 165.717987060546875 167.6373291015625 168.4758758544921875 168.4597625732421875 167.9755706787109375 167.8905181884765625 169.15191650390625 170.540863037109375 172.686004638671875 174.7337188720703125 176.4939422607421875 177.84124755859375 179.237884521484375 179.9487457275390625 180.0400848388671875 180.1880035400390625 181.0957794189453125 182.466552734375 183.197021484375 183.4613800048828125 183.926666259765625 184.5628509521484375 184.634765625 184.9287109375 185.7590179443359375 186.988311767578125 188.8209075927734375 189.7232208251953125 189.9993896484375 190 190 190 189.985321044921875 188.88421630859375 182.05902099609375 171.858428955078125 164.467742919921875 159.778656005859375 161.1260223388671875 172.3992462158203125 183.6409912109375 193.5686187744140625 199.0808868408203125 202.9848175048828125 205.9355926513671875 206.86212158203125 205.3627777099609375 201.618194580078125 194.9712982177734375 190.81622314453125 186.1034698486328125 181.74072265625 177.8837738037109375 172.7343292236328125 173.7882080078125 176.6973419189453125 176.6227874755859375 177.1999359130859375 172.1482391357421875 161.17596435546875 154.211181640625 150.758544921875 150.9696044921875 149.59375 146.3660888671875 142.57977294921875 139.683837890625 139.4569244384765625 140.8665313720703125 148.2352294921875 159.4491119384765625 165.952789306640625 169.95111083984375 169.664520263671875 165.41961669921875 158.0225372314453125 152.5831298828125 142.6940155029296875 139.859710693359375 140.8441925048828125 146.8896484375 154.4271392822265625 159.7967529296875 163.191253662109375 165.31109619140625 165.914581298828125 165.6986083984375 168.1999969482421875 173.740234375 176.0278167724609375 172.542205810546875 158.1517181396484375 149.7975616455078125 149.9250335693359375 151.3741912841796875 157.7550201416015625 164.171844482421875 172.153472900390625 173.4341278076171875 178.412109375 187.4192657470703125 195.7898406982421875 206.2872772216796875 217.66461181640625 224.8484344482421875 224.994720458984375 224.62969970703125 222.5498199462890625 217.7588043212890625 214.1395416259765625 210.9812164306640625 207.2307281494140625 200.1066131591796875 195.5489959716796875 193.1268768310546875 190.7404022216796875 190.036041259765625 190.1232147216796875 190.2071075439453125 190.3165130615234375 190.38372802734375 191.161956787109375 193.8616485595703125 196.217132568359375 198.2100372314453125 199.0579376220703125 199.220458984375 199.11090087890625 199.0834197998046875 199.2085723876953125 199.4487152099609375 199.6894683837890625 199.8857269287109375 199.9953155517578125 200.2626495361328125 202.686614990234375 204.6085357666015625 205.9825439453125 207.0396728515625 208.2408905029296875 208.96014404296875 209.379669189453125 209.9250335693359375 210.22833251953125 210.24285888671875 210.2716217041015625 212.8066558837890625 215.379791259765625 218.8404998779296875 220.732177734375 222.274810791015625 223.1414031982421875 223.7691497802734375 224.175323486328125 224.4027862548828125 224.444915771484375 224.304443359375 224.3048553466796875 224.6225128173828125 225.08367919921875 225.6638946533203125 226.5179443359375 227.6454925537109375 229.14678955078125 230.6375732421875 231.4823760986328125 232.40093994140625 233.0875396728515625 233.993316650390625 234.69329833984375 235.518585205078125 236.0652008056640625 235.884857177734375
-9999 -9999 -9999 -9999 -9999 -9999 -9999 -9999 -9999 -9999 135.5241546630859375 149.096832275390625 158.0015716552734375 166.5261993408203125 170.4095611572265625 172.05450439453125 173.9709320068359375 175.740478515625 176.93634033203125 176.7328948974609375 172.1533355712890625 154.368865966796875 131.4586639404296875 117.66168975830078125 106.3922119140625 99.16956329345703125 95.1839447021484375 91.25081634521484375 89.34088134765625 88.6037139892578125 88.71389007568359375 89.24993133544921875 90.01818084716796875 92.74221038818359375 96.60729217529296875 100.93097686767578125 108.16448211669921875 116.24518585205078125 131.1358184814453125 146.561279296875 159.1461029052734375 164.2186737060546875 165.57879638671875 166.2145843505859375 166.460845947265625 166.0363006591796875 165.867889404296875 168.5865325927734375 170.8190460205078125 172.9672698974609375 174.944427490234375 176.8965606689453125 178.3644561767578125 179.7558441162109375 180.0666961669921875 180.32183837890625 180.4116973876953125 180.5268707275390625 181.0893707275390625 181.49578857421875 182.02911376953125 182.651153564453125 183.071258544921875 182.727783203125 182.4841156005859375 182.9632110595703125 184.03106689453125 185.5385589599609375 186.96014404296875 188.484344482421875 189.3147125244140625 189.725830078125 188.88604736328125 186.29486083984375 179.0543670654296875 171.419219970703125 161.0777435302734375 155.2148895263671875 158.37115478515625 161.1194610595703125 174.749969482421875 186.36407470703125 194.7378692626953125 200.1328125 203.7823944091796875 206.6442413330078125 205.307342529296875 202.0782470703125 197.2169189453125 189.002105712890625 185.440032958984375 180.563018798828125 175.768829345703125 171.07220458984375 168.08099365234375 168.4569244384765625 170.8481597900390625 170.674957275390625 170.960845947265625 168.560455322265625 158.1430816650390625 152.17498779296875 149.7774658203125 147.4140777587890625 143.7049407958984375 141.4536285400390625 139.5343170166015625 137.081817626953125 136.702117919921875 139.0670013427734375 145.833831787109375 155.85784912109375 162.7098846435546875 167.8400421142578125 169.412506103515625 165.7295989990234375 158.86871337890625 153.196197509765625 142.810272216796875 137.954437255859375 136.757904052734375 140.9880218505859375 147.8681488037109375 153.4399871826171875 156.9715728759765625 158.2534637451171875 158.4938201904296875 158.0721588134765625 159.5926513671875 161.8256683349609375 163.17041015625 161.2563934326171875 146.64801025390625 147.9638519287109375 150.0370941162109375 153.72918701171875 161.667083740234375 168.66583251953125 179.2891082763671875 181.6627960205078125 184.3480377197265625 191.196746826171875 198.4581756591796875 208.3304443359375 219.4604034423828125 224.8968963623046875 225 224.7065582275390625 223.012847900390625 219.38299560546875 215.6081695556640625 211.6295166015625 206.416748046875 199.6237640380859375 195.0347442626953125 193.055755615234375 190.9154510498046875 190.0196075439453125 190.017547607421875 190.0310516357421875 190.0971527099609375 190.958343505859375 192.3118438720703125 194.3956298828125 196.6580810546875 197.7764434814453125 198.0946807861328125 198.19866943359375 198.197723388671875 198.283966064453125 198.4819793701171875 198.861968994140625 199.3289947509765625 199.751373291015625 200.12835693359375 200.9415740966796875 202.92742919921875 204.6127777099609375 205.5117034912109375 206.258056640625 207.1681671142578125 207.8122406005859375 208.41558837890625 209.1999359130859375 209.840423583984375 209.9796295166015625 210.139404296875 212.897125244140625 215.512451171875 218.93255615234375 220.5155029296875 221.677398681640625 222.438812255859375 223.0352325439453125 223.4530181884765625 223.6940155029296875 223.7486419677734375 223.5867919921875 223.7065277099609375 224.2153778076171875 224.8693695068359375 225.54931640625 226.52764892578125 227.8444671630859375 229.3627777099609375 230.4705047607421875 231.16302490234375 232.0522003173828125 232.7114410400390625 233.57550048828125 234.218048095703125 234.888580322265625 235.339447021484375 235.413970947265625
-9999 -9999 -9999 -9999 -9999 -9999 -9999 -9999 -9999 -9999 135.0235595703125 147.739349365234375 155.816925048828125 162.6768341064453125 167.26959228515625 170.2897796630859375 172.2791900634765625 173.5096893310546875 174.1207427978515625 173.633880615234375 170.3787994384765625 153.454193115234375 134.1952972412109375 120.86193084716796875 108.97565460205078125 100.29595184326171875 93.929595947265625 89.8927154541015625 88.8025360107421875 87.86614990234375 87.9430389404296875 89.13028717041015625 92.65726470947265625 93.62994384765625 95.2556304931640625 98.13181304931640625 104.10951995849609375 112.39539337158203125 126.33386993408203125 146.7392120361328125 158.571868896484375 162.031219482421875 163.079345703125 164.16778564453125 164.8469390869140625 164.3900299072265625 164.97491455078125 168.0176849365234375 170.610626220703125 173.3075408935546875 175.376373291015625 177.4230804443359375 179.0420989990234375 179.995635986328125 180.061553955078125 180.2454986572265625 180.27606201171875 179.882659912109375 177.657958984375 175.960052490234375 180.1980743408203125 181.0933685302734375 181.3726654052734375 180.97430419921875 179.5802001953125 178.0488739013671875 179.5288238525390625 179.7101593017578125 180.34368896484375 182.7813873291015625 184.645172119140625 185.2981414794921875 181.3885955810546875 174.138824462890625 161.295501708984375 153.9837493896484375 151.838775634765625 154.951995849609375 161.353118896484375 168.1168670654296875 182.798187255859375 190.5430908203125 197.2502593994140625 200.5858306884765625 202.4365386962890625 203.390167236328125 201.7836456298828125 198.05499267578125 192.123565673828125 184.1592559814453125 180.6332550048828125 176.824615478515625 172.1512451171875 167.6468658447265625 163.4113006591796875 163.8182373046875 167.7427978515625 168.0685272216796875 166.7374420166015625 164.2857208251953125 156.9903564453125 152.2835235595703125 150.346038818359375 147.4221649169921875 141.6624298095703125 139.8702239990234375 138.2906951904296875 134.5217132568359375 132.8189849853515625 136.4536895751953125 142.479278564453125 151.9132843017578125 158.9799041748046875 164.2430877685546875 168.6201324462890625 166.8298492431640625 160.6142120361328125 154.3107757568359375 143.71099853515625 136.1817779541015625 131.3981170654296875 136.1011962890625 142.6890869140625 147.5398406982421875 149.81488037109375 150.1526031494140625 149.3925018310546875 148.410308837890625 148.474151611328125 149.05133056640625 149.7476959228515625 147.4513397216796875 145.755096435546875 151.6837310791015625 151.3573760986328125 156.3740386962890625 165.1661529541015625 174.08782958984375 186.5458221435546875 190.2974395751953125 192.4130859375 196.7495574951171875 201.888916015625 210.632598876953125 220.7151947021484375 224.9627685546875 224.97296142578125 223.9586639404296875 222.2667236328125 219.964141845703125 216.2803192138671875 211.551849365234375 205.6085968017578125 199.2774810791015625 194.99737548828125 193.0299530029296875 190.8111114501953125 190.0005035400390625 190 190 190.24224853515625 191.36456298828125 192.7567596435546875 194.4780120849609375 196.159454345703125 196.8912353515625 197.110595703125 197.2240753173828125 197.2594757080078125 197.3578948974609375 197.5801849365234375 198.06561279296875 198.75518798828125 199.4900970458984375 200.1947479248046875 201.0474853515625 202.75469970703125 204.2975311279296875 205.0484771728515625 205.316619873046875 205.910400390625 206.4948883056640625 207.17901611328125 208.01617431640625 208.8025360107421875 209.580963134765625 210.140625 213.021148681640625 215.7544708251953125 219.2844085693359375 220.3315582275390625 221.1023712158203125 221.7533111572265625 222.2931976318359375 222.69110107421875 222.913818359375 222.87384033203125 222.630584716796875 222.725738525390625 223.3651123046875 224.327117919921875 225.170196533203125 226.272857666015625 227.5470428466796875 228.8186187744140625 230.0950775146484375 230.7815093994140625 231.6053009033203125 232.2220458984375 232.9893341064453125 233.479217529296875 233.9008636474609375 234.089752197265625 234.07684326171875
-9999 -9999 -9999 -9999 -9999 -9999 -9999 -9999 -9999 -9999 -9999 146.6981201171875 153.3224945068359375 157.790374755859375 161.0567626953125 165.6070556640625 169.9293365478515625 171.3986358642578125 172.067718505859375 172.1169891357421875 169.828826904296875 158.8552703857421875 139.908538818359375 127.15533447265625 115.141143798828125 105.59235382080078125 98.797210693359375 91.74301910400390625 88.1708221435546875 86.38539886474609375 86.112152099609375 88.46795654296875 91.819122314453125 91.99954986572265625 92.51096343994140625 95.536163330078125 101.33504486083984375 110.16291046142578125 124.225128173828125 147.4490203857421875 158.678070068359375 160.713714599609375 160.795867919921875 160.7144317626953125 160.9780426025390625 162.5416107177734375 164.432952880859375 167.509307861328125 170.4753265380859375 173.9527587890625 175.921051025390625 177.81658935546875 179.4716644287109375 180 179.9473724365234375 178.5503692626953125 173.6739654541015625 170.690765380859375 164.229522705078125 161.6962738037109375 170.570831298828125 175.4199676513671875 179.5230865478515625 179.6783447265625 175.4013824462890625 168.437530517578125 169.1042327880859375 167.1831512451171875 168.93695068359375 174.6637420654296875 176.377685546875 176.182403564453125 170.3307037353515625 159.5696868896484375 150.830718994140625 151.0575714111328125 158.6544036865234375 166.5229339599609375 173.8917999267578125 178.21807861328125 189.505096435546875 194.8663330078125 199.6107635498046875 200.6355133056640625 201.2703857421875 200.2318878173828125 197.4071044921875 191.9559173583984375 186.6955108642578125 180.2403106689453125 178.0906829833984375 174.1096954345703125 170.370391845703125 168.3159332275390625 163.0610809326171875 160.1816253662109375 161.6089019775390625 162.0234832763671875 161.7462005615234375 160.5492095947265625 158.6710205078125 158.0494537353515625 157.2994842529296875 154.658233642578125 148.536224365234375 142.0762176513671875 138.6790313720703125 133.76104736328125 130.247711181640625 132.3230438232421875 138.00592041015625 146.41900634765625 153.10943603515625 160.6643829345703125 165.4460906982421875 165.1666259765625 161.6726226806640625 156.0800628662109375 145.3710784912109375 137.4588623046875 130.0690765380859375 131.734649658203125 137.99530029296875 142.0753631591796875 143.389892578125 142.922119140625 142.0288238525390625 140.871490478515625 140.749053955078125 140.6591339111328125 140.197479248046875 139.20709228515625 144.6784515380859375 150.377227783203125 153.0458831787109375 159.284942626953125 168.47357177734375 178.697052001953125 191.495452880859375 197.535369873046875 199.7976531982421875 202.230712890625 206.5186004638671875 213.7548828125 220.67730712890625 223.95697021484375 224.1544036865234375 223.398773193359375 222.1055145263671875 220.6160430908203125 217.4096221923828125 212.1905517578125 206.1597137451171875 199.9876251220703125 195.790191650390625 193.4529266357421875 190.81170654296875 190 190 190.0022735595703125 190.4022674560546875 191.468994140625 192.7266082763671875 194.1819000244140625 195.21759033203125 195.82086181640625 196.0553741455078125 196.2134246826171875 196.2381134033203125 196.2928466796875 196.49456787109375 197.0064239501953125 197.792083740234375 198.835693359375 199.89105224609375 200.5434112548828125 201.7950897216796875 202.940673828125 203.92962646484375 204.2142486572265625 204.5834197998046875 205.2176055908203125 205.9927978515625 206.7904815673828125 207.642364501953125 208.8997344970703125 209.972320556640625 213.2197418212890625 216.06915283203125 219.592987060546875 220.2629547119140625 220.7870941162109375 221.3253021240234375 221.811279296875 222.1768798828125 222.361785888671875 222.1138763427734375 221.7212371826171875 221.73614501953125 222.44976806640625 223.57781982421875 224.551910400390625 225.6074066162109375 227.003265380859375 228.3727874755859375 229.738800048828125 230.44561767578125 231.213134765625 231.780426025390625 232.3978271484375 232.7452392578125 232.9461669921875 232.8542633056640625 232.4884185791015625
-9999 -9999 -9999 -9999 -9999 -9999 -9999 -9999 -9999 -9999 129.66912841796875 143.635650634765625 150.852020263671875 154.8077850341796875 157.889923095703125 161.7745513916015625 167.4475250244140625 170.102508544921875 171.0059661865234375 172.8022918701171875 174.439056396484375 168.8207244873046875 151.6108551025390625 137.394927978515625 124.206390380859375 113.52779388427734375 104.99334716796875 95.95996856689453125 89.40749359130859375 84.22829437255859375 82.20433807373046875 88.380401611328125 90.0237884521484375 89.7501220703125 89.652099609375 92.11167144775390625 99.38726806640625 109.0174713134765625 119.8292999267578125 142.1314239501953125 155.667877197265625 159.90020751953125 157.50067138671875 156.9564056396484375 160.363983154296875 162.610198974609375 164.59954833984375 167.362213134765625 169.98931884765625 173.94720458984375 175.9100494384765625 177.1514739990234375 177.943511962890625 178.0251617431640625 175.5434722900390625 168.8253631591796875 156.6041717529296875 150.9814300537109375 146.3719329833984375 145.0792236328125 148.8052215576171875 153.66131591796875 162.20233154296875 169.4788055419921875 164.7023162841796875 149.9873046875 146.8686370849609375 148.351348876953125 150.6970062255859375 154.7230072021484375 156.0773468017578125 156.0688323974609375 152.6466522216796875 150.186004638671875 153.9156646728515625 161.590911865234375 173.515106201171875 181.6534423828125 187.2140350341796875 188.9953155517578125 193.9758758544921875 198.2349090576171875 200.2580108642578125 201.512969970703125 201.6548004150390625 198.4039764404296875 193.7567901611328125 187.8111114501953125 183.182342529296875 179.9178924560546875 178.662322998046875 175.87762451171875 173.7552490234375 172.593994140625 168.756378173828125 162.35540771484375 157.6557464599609375 155.89703369140625 160.0112152099609375 159.2721099853515625 156.266204833984375 158.0220794677734375 159.99212646484375 159.5382080078125 156.6914520263671875 150.05523681640625 144.14117431640625 136.9978790283203125 131.4725799560546875 130.1469879150390625 133.547088623046875 141.21514892578125 147.8834686279296875 156.54803466796875 161.890899658203125 162.084716796875 160.7400970458984375 157.619781494140625 147.105438232421875 139.0981903076171875 130.525054931640625 130.1088409423828125 132.571197509765625 136.10955810546875 136.842376708984375 135.9810791015625 134.8493194580078125 133.828521728515625 133.6627197265625 133.04144287109375 132.8380889892578125 131.531097412109375 139.32818603515625 145.5572509765625 154.6056060791015625 162.4714202880859375 173.5470428466796875 184.2498931884765625 198.8638763427734375 208.4657440185546875 211.37030029296875 212.032806396484375 212.9623870849609375 217.02276611328125 220.6676177978515625 222.0984344482421875 222.6092071533203125 222.7032318115234375 222 220.8549652099609375 218.4094696044921875 213.3213348388671875 207.4041290283203125 201.6462249755859375 197.15838623046875 194.415313720703125 191.44775390625 190.129974365234375 190 190.0032806396484375 190.342010498046875 191.0997161865234375 191.8470458984375 192.9386444091796875 193.88641357421875 194.7434539794921875 195.0904998779296875 195.3649444580078125 195.3978729248046875 195.3004608154296875 195.3125 195.817047119140625 196.7485809326171875 197.9638671875 199.392852783203125 199.955841064453125 200.4437255859375 201.283843994140625 202.1888275146484375 202.55657958984375 202.888427734375 203.3415069580078125 204.344390869140625 205.35919189453125 206.4474029541015625 208.414947509765625 210.2430419921875 213.5083770751953125 216.071014404296875 219.3155670166015625 220.2100982666015625 220.58477783203125 221.0029449462890625 221.4157257080078125 221.7005157470703125 221.6820220947265625 221.111053466796875 220.5918426513671875 220.4909515380859375 221.5487060546875 222.941986083984375 224.0301361083984375 225.05987548828125 226.6768951416015625 228.193634033203125 229.55035400390625 230.129669189453125 230.7241363525390625 231.226715087890625 231.659454345703125 231.8323974609375 231.845550537109375 231.6456146240234375 231.10479736328125
-9999 -9999 -9999 -9999 -9999 -9999 -9999 -9999 -9999 -9999 128.334503173828125 140.1527557373046875 147.686431884765625 152.2190399169921875 155.75244140625 159.7060546875 164.3844757080078125 167.07513427734375 169.1952056884765625 171.6866302490234375 172.8168182373046875 171.0483856201171875 163.0046539306640625 146.548919677734375 132.9132080078125 119.92903900146484375 109.1478424072265625 100.3089141845703125 94.1038818359375 85.97365570068359375 80.5615234375 85.654266357421875 88.41948699951171875 88.42137908935546875 88.5488128662109375 90.30785369873046875 97.9179534912109375 106.8231048583984375 113.8778076171875 135.606903076171875 151.2192230224609375 152.6853179931640625 147.907745361328125 155.0289154052734375 160.6225738525390625 163.3506927490234375 165.300018310546875 167.6877288818359375 169.9485626220703125 173.4344635009765625 175.2248687744140625 175.5276031494140625 174.7686614990234375 173.23455810546875 164.5000762939453125 151.9948272705078125 145.2417144775390625 140.591827392578125 135.42987060546875 134.55029296875 136.645660400390625 140.0203857421875 145.2011566162109375 155.60345458984375 155.983978271484375 141.49090576171875 140.2008514404296875 142.2903900146484375 144.06341552734375 149.4719696044921875 150 150.000946044921875 150.125 152.93463134765625 163.1071319580078125 172.537994384765625 182.7310333251953125 188.8740081787109375 192.2252960205078125 193.8024749755859375 196.8400421142578125 199.6139678955078125 201.2503814697265625 202.103668212890625 201.6924285888671875 197.4968109130859375 191.8058319091796875 186.0894317626953125 182.0737457275390625 180.493408203125 180.807891845703125 180.72637939453125 180.13079833984375 178.1820526123046875 174.08111572265625 169.706512451171875 158.9129180908203125 151.289154052734375 156.8093414306640625 155.4343109130859375 149.712677001953125 152.9261322021484375 159.120330810546875 161.69110107421875 163.377716064453125 159.0135650634765625 153.203643798828125 144.0814208984375 136.8026885986328125 130.167633056640625 130.210052490234375 134.3594818115234375 141.8074951171875 150.4925384521484375 158.6681671142578125 160.8716278076171875 161.5403900146484375 160.011932373046875 149.772796630859375 140.7961578369140625 131.2397918701171875 129.028900146484375 128.0450439453125 130.0915069580078125 131.298248291015625 130.186187744140625 128.6082611083984375 127.26123046875 128.1965179443359375 128.900543212890625 129.1337738037109375 130.0164794921875 136.2565765380859375 144.1690673828125 155.6985626220703125 164.734466552734375 177.89141845703125 188.74176025390625 204.866729736328125 214.9783477783203125 216.1457366943359375 216.7284698486328125 217.8421783447265625 219.8395843505859375 220.4211883544921875 221.1835174560546875 221.5736083984375 221.7158050537109375 221.4369049072265625 220.7223052978515625 219.3538818359375 214.6240234375 208.63677978515625 203.1392822265625 198.136138916015625 195.23455810546875 192.6115875244140625 191.1049652099609375 190.02154541015625 190 190.0233154296875 190.14447021484375 190.258819580078125 190.7883758544921875 191.477142333984375 192.353271484375 192.8510589599609375 193.6137542724609375 193.701873779296875 192.919342041015625 192.3596954345703125 193.383514404296875 195.302825927734375 196.576629638671875 197.636932373046875 198.1088104248046875 198.625 199.4679412841796875 200.51220703125 200.7878875732421875 200.9785614013671875 200.8943634033203125 201.1490478515625 203.3073883056640625 205.689361572265625 208.6544647216796875 210.583984375 213.373870849609375 215.5585479736328125 218.2886810302734375 219.8371734619140625 220.438812255859375 220.8393707275390625 221.224609375 221.149261474609375 220.762786865234375 220.205047607421875 220.0003662109375 220.111602783203125 221.17108154296875 222.6687164306640625 223.8155517578125 224.993499755859375 226.7514190673828125 228.3774871826171875 229.383392333984375 229.875885009765625 230.218780517578125 230.6103057861328125 230.932525634765625 231.0000762939453125 230.9432220458984375 230.683624267578125 230.1805572509765625
-9999 -9999 -9999 -9999 -9999 -9999 -9999 -9999 -9999 -9999 -9999 136.0927734375 143.62420654296875 149.57574462890625 153.379547119140625 157.1493072509765625 160.9207000732421875 163.6854705810546875 166.803558349609375 169.80364990234375 171.58709716796875 170.6252593994140625 168.1757354736328125 154.0948638916015625 139.5899200439453125 125.7818603515625 114.73635101318359375 105.65746307373046875 97.55107879638671875 87.53903961181640625 80.2369842529296875 81.82915496826171875 84.734375 86.46321868896484375 87.80263519287109375 89.54640960693359375 95.53690338134765625 102.12029266357421875 108.25612640380859375 119.785736083984375 133.3458709716796875 128.9062042236328125 142.988525390625 157.81036376953125 161.849853515625 164.5088958740234375 166.0844573974609375 168.192352294921875 170.4668426513671875 173.8819580078125 175.4276275634765625 175.0605316162109375 172.4653472900390625 166.0665283203125 150.7693939208984375 143.565093994140625 136.8757476806640625 131.3770294189453125 129.6331787109375 129.998382568359375 130.2173614501953125 130.5834197998046875 131.569427490234375 138.65679931640625 143.8447113037109375 140.1889190673828125 142.0430908203125 153.95684814453125 161.1030426025390625 162.317413330078125 161.3493804931640625 161.9952850341796875 164.6555023193359375 170.0646514892578125 179.0233154296875 185.3560028076171875 190.6325836181640625 193.42327880859375 195.5256500244140625 197.3277740478515625 199.8153839111328125 201.357025146484375 202.925994873046875 203.838134765625 202.9488067626953125 198.003387451171875 192.79290771484375 187.8337249755859375 186.0422210693359375 186.5713958740234375 188.5366668701171875 189.4522552490234375 188.473785400390625 184.69207763671875 177.6032562255859375 171.3284759521484375 161.5319976806640625 152.9588165283203125 150.560546875 146.3770294189453125 141.9039306640625 146.471923828125 154.21820068359375 161.146697998046875 164.4129638671875 161.0780487060546875 158.82989501953125 151.583343505859375 143.805206298828125 133.0947418212890625 129.9725494384765625 130.3780059814453125 136.352874755859375 145.3444366455078125 156.0416412353515625 162.73077392578125 166.373687744140625 164.3774871826171875 152.693145751953125 143.0436553955078125 132.6045074462890625 126.68944549560546875 123.0140380859375 124.48311614990234375 124.96674346923828125 123.73294830322265625 122.304534912109375 121.74427032470703125 125.64768218994140625 127.52381134033203125 127.2420501708984375 131.3623809814453125 139.5358734130859375 147.2738494873046875 158.4658355712890625 167.9104156494140625 181.0836181640625 191.3765869140625 206.9110565185546875 215.241241455078125 216.499847412109375 217.60394287109375 218.8224639892578125 219.966156005859375 220.2103271484375 220.6640167236328125 220.9348907470703125 221.064483642578125 220.9095458984375 220.425140380859375 218.962921142578125 214.30792236328125 208.478424072265625 203.2122650146484375 198.418914794921875 195.9025726318359375 193.4726409912109375 192.0245819091796875 190.332855224609375 190.0026397705078125 190 190 190 190.0059967041015625 190.12957763671875 190.5547637939453125 190.7589263916015625 190.977752685546875 191.268707275390625 190.8170166015625 190.1326446533203125 190.8875579833984375 193.3578948974609375 195.281005859375 196.0502777099609375 196.3401336669921875 196.731689453125 197.4665679931640625 198.6561737060546875 199.1225128173828125 199.51690673828125 199.7470245361328125 199.9804534912109375 202.193267822265625 205.16632080078125 208.600433349609375 210.4810943603515625 212.9785614013671875 214.9263153076171875 217.2877349853515625 219.0209503173828125 220.133758544921875 220.386688232421875 220.5063018798828125 220.3898773193359375 220.1628570556640625 219.6711883544921875 219.4847259521484375 219.7962188720703125 220.8563690185546875 222.4923858642578125 223.736175537109375 224.98876953125 226.7150726318359375 228.0277862548828125 228.73785400390625 229.1872100830078125 229.6846923828125 229.95123291015625 230.212738037109375 230.220550537109375 230.11456298828125 229.908172607421875 229.510345458984375
-9999 -9999 -9999 -9999 -9999 -9999 -9999 -9999 -9999 -9999 -9999 133.244110107421875 140.718963623046875 146.2304229736328125 150.28680419921875 153.3192138671875 156.99267578125 160.656768798828125 164.4383392333984375 167.8768463134765625 169.76629638671875 169.3643035888671875 167.6233367919921875 158.6879730224609375 141.8152618408203125 127.6156768798828125 115.34088134765625 104.338958740234375 95.84790802001953125 86.38701629638671875 80.224029541015625 80.1637725830078125 82.2292022705078125 85.14177703857421875 87.6775970458984375 90.092498779296875 93.85822296142578125 98.28227996826171875 104.635772705078125 110.71523284912109375 117.64711761474609375 128.957275390625 149.9786224365234375 160.457794189453125 163.0902862548828125 165.2758026123046875 166.5461578369140625 168.583953857421875 170.85009765625 174.390350341796875 175.8674774169921875 176.51409912109375 168.490386962890625 153.987213134765625 144.361236572265625 137.843475341796875 129.3464813232421875 124.67938995361328125 128.048248291015625 133.3553314208984375 137.1220245361328125 137.805633544921875 137.9437713623046875 135.6566619873046875 138.771697998046875 140.0424346923828125 143.9591827392578125 159.7079010009765625 172.2234954833984375 178.17401123046875 178.0724334716796875 179.1688385009765625 180.355682373046875 182.47125244140625 187.8639984130859375 191.6998138427734375 194.0863494873046875 195.0769500732421875 197.0878448486328125 198.9934844970703125 200.6923065185546875 202.2431793212890625 204.1972808837890625 205.1677703857421875 204.8668670654296875 199.4937591552734375 194.572235107421875 190.142913818359375 189.736785888671875 191.9896240234375 194.46240234375 195.9031219482421875 194.593414306640625 188.925262451171875 179.4298248291015625 171.5930633544921875 163.5320892333984375 158.05322265625 149.7865753173828125 144.5165863037109375 140.0150909423828125 141.49871826171875 148.8552398681640625 155.7461395263671875 159.11663818359375 158.7889556884765625 158.254547119140625 155.08441162109375 149.3295135498046875 137.2518768310546875 129.4423370361328125 126.944793701171875 130.5622406005859375 139.9033355712890625 152.1396026611328125 163.157501220703125 171.6515045166015625 168.158966064453125 156.578125 145.5141143798828125 133.8026275634765625 126.1651458740234375 120.10272979736328125 120.33223724365234375 120.343841552734375 120.103607177734375 120.33187103271484375 124.19515228271484375 127.80517578125 129.6872711181640625 129.603729248046875 132.2209930419921875 141.0539093017578125 149.3451385498046875 159.456024169921875 168.6424407958984375 180.9308319091796875 190.908843994140625 203.794677734375 213.81072998046875 216.14691162109375 217.51220703125 218.6818695068359375 219.8563079833984375 220.0420989990234375 220.22540283203125 220.35888671875 220.4246368408203125 220.306121826171875 219.9688720703125 217.20831298828125 212.7793121337890625 207.632598876953125 202.6956939697265625 198.59112548828125 196.60498046875 194.4851226806640625 193.18310546875 191.5169677734375 190.34991455078125 190 190 190 189.9913330078125 189.8128509521484375 189.09344482421875 188.542938232421875 188.1258697509765625 187.9923248291015625 188.3279266357421875 188.8053131103515625 189.7313995361328125 190.8192291259765625 192.7175140380859375 193.74639892578125 194.270294189453125 194.824371337890625 195.0785064697265625 196.363311767578125 197.153472900390625 197.8206939697265625 198.5681304931640625 199.5128326416015625 201.7272796630859375 204.9694061279296875 208.4363555908203125 210.2114410400390625 212.477813720703125 214.231903076171875 216.311553955078125 217.8682098388671875 219.28826904296875 219.5837249755859375 219.6465301513671875 219.937347412109375 219.9515533447265625 218.9444427490234375 218.4652252197265625 219.1072845458984375 220.3389892578125 222.0369873046875 223.4440460205078125 224.8884735107421875 226.2401123046875 227.1816558837890625 227.975860595703125 228.5408477783203125 229.183990478515625 229.5833587646484375 229.8718109130859375 229.8103179931640625 229.634063720703125 229.4384918212890625 228.8270416259765625
-9999 -9999 -9999 -9999 -9999 -9999 -9999 -9999 -9999 -9999 -9999 130.91204833984375 136.9273834228515625 141.9999542236328125 145.344818115234375 149.0193328857421875 152.56231689453125 156.7503662109375 161.433624267578125 164.1229705810546875 165.4469451904296875 165.4690093994140625 164.0812225341796875 156.2078399658203125 136.180267333984375 121.461181640625 110.77207183837890625 100.87221527099609375 93.32452392578125 84.227874755859375 79.93421173095703125 79.912261962890625 81.5435791015625 84.60713958740234375 87.57861328125 89.70948028564453125 91.47367095947265625 96.7036590576171875 105.24910736083984375 115.65630340576171875 123.56504058837890625 138.8788909912109375 155.3083648681640625 161.3458404541015625 163.1612091064453125 165.0196075439453125 166.6493072509765625 168.91717529296875 171.124176025390625 173.941192626953125 175.0748291015625 173.0663604736328125 160.3324737548828125 147.3611297607421875 139.5351409912109375 132.766876220703125 122.68416595458984375 122.22467041015625 133.3390350341796875 144.2701416015625 150.0962677001953125 149.5518951416015625 149.265106201171875 148.6146697998046875 143.6123809814453125 146.0704193115234375 151.8715667724609375 165.0027618408203125 175.4823760986328125 183.28472900390625 186.9202880859375 189.9169464111328125 190.368682861328125 191.543853759765625 193.61639404296875 195.2112274169921875 195.2357177734375 195.05224609375 195.745147705078125 198.0202178955078125 200.413116455078125 202.071990966796875 204.3449554443359375 205.97088623046875 205.681610107421875 201.811981201171875 197.7708282470703125 193.33538818359375 192.8596954345703125 193.8491058349609375 194.748260498046875 194.4520263671875 191.199432373046875 185.4936065673828125 177.4422454833984375 168.9719696044921875 162.9765777587890625 158.8804473876953125 149.3167266845703125 144.735504150390625 137.139129638671875 137.1241607666015625 145.190643310546875 150.05841064453125 151.14617919921875 149.055084228515625 147.9167022705078125 148.437469482421875 148.16644287109375 138.6767730712890625 128.4870758056640625 121.44635009765625 125.9982147216796875 134.5819854736328125 148.064239501953125 159.7062530517578125 166.1297607421875 164.6455230712890625 159.1233978271484375 147.166900634765625 134.133819580078125 126.04257965087890625 119.51647186279296875 119.1872711181640625 119.77762603759765625 121.5464630126953125 125.59381103515625 130.604522705078125 135.5695648193359375 139.3078765869140625 138.4188690185546875 136.3261260986328125 140.861907958984375 147.9171295166015625 158.6018218994140625 166.8729705810546875 177.9775543212890625 187.2246856689453125 198.980316162109375 210.1968231201171875 215.5081939697265625 216.844635009765625 217.8926239013671875 219.1077728271484375 219.833648681640625 220.0277862548828125 220.043060302734375 219.8409423828125 219.503570556640625 218.52313232421875 215.62646484375 211.5308990478515625 206.700469970703125 202.0666351318359375 198.6632080078125 197.0972137451171875 195.3632049560546875 194.1792144775390625 192.5248565673828125 191.264373779296875 190.449676513671875 190.2767333984375 190.070281982421875 189.958404541015625 189.5295867919921875 188.3003082275390625 187.2240142822265625 185.9062347412109375 185.2535552978515625 185.66229248046875 186.8048095703125 189.0387420654296875 190.199737548828125 190.997955322265625 191.8969268798828125 193.1219940185546875 194.3439178466796875 194.3227081298828125 195.1637725830078125 195.9050445556640625 196.516326904296875 197.4695587158203125 199.2028350830078125 202.313873291015625 205.6952972412109375 209.0453643798828125 210.2671966552734375 212.109588623046875 213.689239501953125 215.5868682861328125 216.95758056640625 218.0014190673828125 218.3101348876953125 218.8505859375 219.284820556640625 219.1535491943359375 218.21240234375 217.5499267578125 218.59722900390625 219.9963226318359375 221.778594970703125 223.1872711181640625 224.6975860595703125 225.691741943359375 226.493133544921875 227.34991455078125 227.990753173828125 228.75140380859375 229.2340545654296875 229.543548583984375 229.3510589599609375 229.028961181640625 228.798095703125 228.049224853515625
