ncols        182
nrows        28
xllcorner    473059.9838
yllcorner    4429751.1748
cellsize     50.000000000000
NODATA_value  -9999
-9999 -9999 -9999 -9999 -9999 -9999 -9999 -9999 -9999 -9999 -9999 -9999 -9999 -9999 -9999 -9999 -9999 -9999 -9999 -9999 -9999 -9999 -9999 -9999 -9999 -9999 -9999 -9999 -9999 -9999 -9999 -9999 -9999 -9999 -9999 -9999 -9999 -9999 -9999 -0.6671664118766784668 -0.64725649356842041016 -0.63167095184326171875 -0.60848349332809448242 -0.59605038166046142578 -0.59480893611907958984 -0.59922033548355102539 -0.61889064311981201172 -0.68019133806228637695 -0.87418806552886962891 -1.1051878929138183594 -1.2400200366973876953 -1.3236690759658813477 -1.3649079799652099609 -1.380276799201965332 -1.3625609874725341797 -1.3220893144607543945 -1.2699278593063354492 -1.1749119758605957031 -1.069788813591003418 -1.0472791194915771484 -1.0612878799438476563 -1.0492467880249023438 -1.0908926725387573242 -1.2249519824981689453 -1.3592599630355834961 -1.4808601140975952148 -1.603636622428894043 -1.7170422077178955078 -1.7897454500198364258 -1.8635380268096923828 -1.9100773334503173828 -1.9475331306457519531 -1.9709783792495727539 -1.9639418125152587891 -1.9727855920791625977 -1.9984524250030517578 -2.0264627933502197266 -2.0338997840881347656 -2.0358986854553222656 -2.0380072593688964844 -2.0394089221954345703 -2.0392203330993652344 -2.0404109954833984375 -2.0449428558349609375 -2.0519251823425292969 -2.0521914958953857422 -2.0147588253021240234 -1.9575817584991455078 -1.9691443443298339844 -1.9746673107147216797 -1.9169629812240600586 -1.8263152837753295898 -1.7106716632843017578 -1.5952116250991821289 -1.5000946521759033203 -1.4787732362747192383 -1.4783424139022827148 -1.4785495996475219727 -1.4883911609649658203 -1.5008872747421264648 -1.5457221269607543945 -1.613037109375 -1.5828472375869750977 -1.4337162971496582031 -1.3685420751571655273 -1.4849611520767211914 -1.6775084733963012695 -1.826771855354309082 -1.9306970834732055664 -1.9955331087112426758 -2.0052936077117919922 -1.9302519559860229492 -1.8734830617904663086 -1.82190704345703125 -1.7459005117416381836 -1.621260523796081543 -1.4422924518585205078 -1.1742280721664428711 -1.0700244903564453125 -1.0986474752426147461 -1.0765945911407470703 -1.0137848854064941406 -0.8961670994758605957 -0.77492034435272216797 -0.73066508769989013672 -0.72304499149322509766 -0.7274411320686340332 -0.73805165290832519531 -0.75576549768447875977 -0.76664561033248901367 -0.77249962091445922852 -0.7742137908935546875 -0.7737712860107421875 -0.7734050750732421875 -0.77789527177810668945 -0.79143220186233520508 -0.80956059694290161133 -0.84236299991607666016 -0.85005152225494384766 -0.83603835105895996094 -0.81339639425277709961 -0.78977513313293457031 -0.76386314630508422852 -0.73799264430999755859 -0.71966153383255004883 -0.70171827077865600586 -0.67694693803787231445 -0.66136163473129272461 -0.65718698501586914063 -0.64828580617904663086 -0.6266333460807800293 -0.600200653076171875 -0.57718229293823242188 -0.55126029253005981445 -0.52755498886108398438 -0.50822603702545166016 -0.48269125819206237793 -0.4593296349048614502 -0.44324925541877746582 -0.44191962480545043945 -0.45785361528396606445 -0.47973859310150146484 -0.50837075710296630859 -0.64772802591323852539 -0.94487684965133666992 -1.3000066280364990234 -1.483470916748046875 -1.4663844108581542969 -1.3195198774337768555 -1.1172133684158325195 -0.75565207004547119141 -0.53660857677459716797 -0.4808025658130645752 -0.45139777660369873047 -0.42918664216995239258 -0.40652176737785339355 -0.3783175349235534668 -0.34766986966133117676 -0.31829661130905151367 -0.30952307581901550293 -0.31043419241905212402 -0.31352511048316955566
-9999 -9999 -9999 -9999 -9999 -9999 -9999 -9999 -9999 -9999 -9999 -9999 -9999 -9999 -9999 -9999 -9999 -9999 -9999 -9999 -9999 -9999 -9999 -9999 -9999 -9999 -9999 -9999 -9999 -9999 -9999 -9999 -9999 -9999 -9999 -9999 -9999 -9999 -9999 -9999 -0.63016599416732788086 -0.61843061447143554688 -0.59850192070007324219 -0.58792936801910400391 -0.58335596323013305664 -0.58480489253997802734 -0.5994980931282043457 -0.68022179603576660156 -0.88232743740081787109 -1.0961166620254516602 -1.238267064094543457 -1.3242208957672119141 -1.3539961576461791992 -1.3554816246032714844 -1.317519068717956543 -1.2451308965682983398 -1.1402227878570556641 -1.011349797248840332 -0.94763076305389404297 -0.96847909688949584961 -1.0577760934829711914 -1.1308619976043701172 -1.210305333137512207 -1.3218147754669189453 -1.415981292724609375 -1.4974782466888427734 -1.6047774553298950195 -1.7218111753463745117 -1.8003430366516113281 -1.8706657886505126953 -1.9242359399795532227 -1.9811398983001708984 -2.02117156982421875 -2.0271356105804443359 -2.0272042751312255859 -2.0272471904754638672 -2.0352680683135986328 -2.0405123233795166016 -2.0445482730865478516 -2.050365447998046875 -2.0547428131103515625 -2.0546572208404541016 -2.0549914836883544922 -2.0597159862518310547 -2.0695154666900634766 -2.0818295478820800781 -2.0807783603668212891 -2.0562345981597900391 -2.0383839607238769531 -2.0096280574798583984 -1.9378699064254760742 -1.8594022989273071289 -1.7820867300033569336 -1.7066178321838378906 -1.6510241031646728516 -1.6413246393203735352 -1.6294662952423095703 -1.6070085763931274414 -1.5959869623184204102 -1.5884552001953125 -1.5949094295501708984 -1.6439741849899291992 -1.6711233854293823242 -1.5443960428237915039 -1.4411278963088989258 -1.5265938043594360352 -1.7140785455703735352 -1.8714385032653808594 -1.9773119688034057617 -2.0211534500122070313 -1.9875061511993408203 -1.9224632978439331055 -1.8780035972595214844 -1.8376669883728027344 -1.7780817747116088867 -1.6587209701538085938 -1.4794870615005493164 -1.1894707679748535156 -0.97754371166229248047 -0.95357316732406616211 -0.97079950571060180664 -0.95668119192123413086 -0.86646223068237304688 -0.77560430765151977539 -0.73450696468353271484 -0.72002625465393066406 -0.72949624061584472656 -0.74762094020843505859 -0.76838356256484985352 -0.78050178289413452148 -0.78742617368698120117 -0.78767645359039306641 -0.78443932533264160156 -0.78050386905670166016 -0.78318893909454345703 -0.79415708780288696289 -0.81468683481216430664 -0.85857146978378295898 -0.86934417486190795898 -0.86476224660873413086 -0.84750157594680786133 -0.82196176052093505859 -0.79396027326583862305 -0.76630926132202148438 -0.74204987287521362305 -0.72496330738067626953 -0.70054149627685546875 -0.68340718746185302734 -0.67821860313415527344 -0.66764336824417114258 -0.6446170806884765625 -0.61351776123046875 -0.59100109338760375977 -0.56883960962295532227 -0.545909881591796875 -0.52773368358612060547 -0.50184839963912963867 -0.4762299954891204834 -0.46544224023818969727 -0.46566975116729736328 -0.47588568925857543945 -0.4964752495288848877 -0.56326335668563842773 -0.87193274497985839844 -1.168003082275390625 -1.4396778345108032227 -1.5644615888595581055 -1.4486095905303955078 -1.2906538248062133789 -1.1562403440475463867 -0.86893546581268310547 -0.58810013532638549805 -0.48823246359825134277 -0.45129892230033874512 -0.42797526717185974121 -0.40553224086761474609 -0.38213372230529785156 -0.36129748821258544922 -0.34440150856971740723 -0.34169992804527282715 -0.34482210874557495117 -0.34882494807243347168
-9999 -9999 -9999 -9999 -9999 -9999 -9999 -9999 -9999 -9999 -9999 -9999 -9999 -9999 -9999 -9999 -9999 -9999 -9999 -9999 -9999 -9999 -9999 -9999 -9999 -9999 -9999 -9999 -9999 -9999 -9999 -9999 -9999 -9999 -9999 -9999 -9999 -9999 -9999 -9999 -0.61557012796401977539 -0.6065196990966796875 -0.59047996997833251953 -0.57910227775573730469 -0.57036107778549194336 -0.5731639862060546875 -0.59281241893768310547 -0.67250370979309082031 -0.87038207054138183594 -1.0706582069396972656 -1.2175096273422241211 -1.2976409196853637695 -1.3209667205810546875 -1.2969396114349365234 -1.2241318225860595703 -1.1215264797210693359 -0.97952520847320556641 -0.84533905982971191406 -0.8352782130241394043 -0.94028991460800170898 -1.1009290218353271484 -1.2714768648147583008 -1.3799376487731933594 -1.4508492946624755859 -1.5344028472900390625 -1.5788247585296630859 -1.6446908712387084961 -1.7496815919876098633 -1.8275521993637084961 -1.8990681171417236328 -1.9620102643966674805 -2.0123217105865478516 -2.0398094654083251953 -2.0535349845886230469 -2.0549581050872802734 -2.0434753894805908203 -2.0462625026702880859 -2.0502038002014160156 -2.0547213554382324219 -2.0648500919342041016 -2.0726630687713623047 -2.0710279941558837891 -2.0688714981079101563 -2.0728254318237304688 -2.0836582183837890625 -2.0952711105346679688 -2.0991511344909667969 -2.0897939205169677734 -2.0686535835266113281 -2.0277190208435058594 -1.9658507108688354492 -1.9032803773880004883 -1.8417855501174926758 -1.7874611616134643555 -1.7600839138031005859 -1.7666125297546386719 -1.7594735622406005859 -1.7250173091888427734 -1.7204995155334472656 -1.707831263542175293 -1.6711751222610473633 -1.7049585580825805664 -1.7596317529678344727 -1.6894207000732421875 -1.5653091669082641602 -1.5723643302917480469 -1.7138600349426269531 -1.8541848659515380859 -1.9768726825714111328 -2.0246460437774658203 -1.9896330833435058594 -1.9390016794204711914 -1.903820037841796875 -1.8797161579132080078 -1.8238959312438964844 -1.7007372379302978516 -1.542734980583190918 -1.3030365705490112305 -1.047832489013671875 -0.91063445806503295898 -0.90649980306625366211 -0.88651603460311889648 -0.82244014739990234375 -0.77619051933288574219 -0.74690186977386474609 -0.73609369993209838867 -0.74748516082763671875 -0.76682496070861816406 -0.78664356470108032227 -0.7955405116081237793 -0.79987162351608276367 -0.7981230616569519043 -0.79326730966567993164 -0.78967672586441040039 -0.79109120368957519531 -0.80249768495559692383 -0.83361077308654785156 -0.87039959430694580078 -0.87873935699462890625 -0.87813085317611694336 -0.86870962381362915039 -0.84469050168991088867 -0.81342327594757080078 -0.78522658348083496094 -0.75321948528289794922 -0.73523181676864624023 -0.72045248746871948242 -0.71023923158645629883 -0.69944500923156738281 -0.68051666021347045898 -0.65572053194046020508 -0.62778049707412719727 -0.60179722309112548828 -0.58045774698257446289 -0.56263107061386108398 -0.54988205432891845703 -0.53742182254791259766 -0.51891744136810302734 -0.50133788585662841797 -0.49389526247978210449 -0.49742075800895690918 -0.52022349834442138672 -0.68912792205810546875 -1.0555440187454223633 -1.3155626058578491211 -1.5361751317977905273 -1.5967820882797241211 -1.4384344816207885742 -1.2527905702590942383 -1.0958995819091796875 -0.81870740652084350586 -0.55788421630859375 -0.47680532932281494141 -0.44935998320579528809 -0.42719388008117675781 -0.40472167730331420898 -0.38874471187591552734 -0.37883469462394714355 -0.37101501226425170898 -0.37215697765350341797 -0.37830188870429992676 -0.38308382034301757813
-9999 -9999 -9999 -9999 -9999 -9999 -9999 -9999 -9999 -9999 -9999 -9999 -9999 -9999 -9999 -9999 -9999 -9999 -9999 -9999 -9999 -9999 -9999 -9999 -9999 -9999 -9999 -9999 -9999 -9999 -9999 -9999 -9999 -9999 -9999 -9999 -9999 -9999 -9999 -9999 -0.60184556245803833008 -0.59628432989120483398 -0.58509039878845214844 -0.57545894384384155273 -0.56835103034973144531 -0.57667452096939086914 -0.60792458057403564453 -0.68124657869338989258 -0.85889554023742675781 -1.0393732786178588867 -1.1775293350219726563 -1.2343792915344238281 -1.2175430059432983398 -1.1566070318222045898 -1.0604587793350219727 -0.94014513492584228516 -0.82590496540069580078 -0.76816004514694213867 -0.83180922269821166992 -0.9841219782829284668 -1.178563237190246582 -1.3878138065338134766 -1.5216138362884521484 -1.5693438053131103516 -1.6391520500183105469 -1.7005105018615722656 -1.7603960037231445313 -1.8133662939071655273 -1.8707846403121948242 -1.9351208209991455078 -2.0021238327026367188 -2.0382089614868164063 -2.0542652606964111328 -2.069854736328125 -2.0770366191864013672 -2.0681042671203613281 -2.0653300285339355469 -2.065967559814453125 -2.0678896903991699219 -2.0782473087310791016 -2.0910177230834960938 -2.0855727195739746094 -2.0790381431579589844 -2.0827212333679199219 -2.0942370891571044922 -2.1009476184844970703 -2.1041519641876220703 -2.1045470237731933594 -2.0944354534149169922 -2.0555608272552490234 -1.997066497802734375 -1.9294217824935913086 -1.8741331100463867188 -1.8325525522232055664 -1.8249646425247192383 -1.8486062288284301758 -1.8459029197692871094 -1.8119584321975708008 -1.8241250514984130859 -1.8058845996856689453 -1.750996708869934082 -1.7587304115295410156 -1.8259472846984863281 -1.7997632026672363281 -1.6864389181137084961 -1.615099787712097168 -1.6639808416366577148 -1.7644361257553100586 -1.9148712158203125 -2.0220818519592285156 -2.0104815959930419922 -1.9724215269088745117 -1.9350780248641967773 -1.907050013542175293 -1.8558963537216186523 -1.72946929931640625 -1.5844439268112182617 -1.3846162557601928711 -1.1332105398178100586 -0.90268969535827636719 -0.86356168985366821289 -0.8368307948112487793 -0.80429172515869140625 -0.78224784135818481445 -0.76335871219635009766 -0.75991016626358032227 -0.7745532989501953125 -0.79276198148727416992 -0.80670988559722900391 -0.81028085947036743164 -0.80930662155151367188 -0.80500572919845581055 -0.80006843805313110352 -0.79802417755126953125 -0.79897719621658325195 -0.81734102964401245117 -0.85901123285293579102 -0.88585478067398071289 -0.89472550153732299805 -0.89380228519439697266 -0.8809719085693359375 -0.85862439870834350586 -0.82830691337585449219 -0.79957151412963867188 -0.76636117696762084961 -0.74701327085494995117 -0.73794341087341308594 -0.73272812366485595703 -0.72062766551971435547 -0.69652718305587768555 -0.66992807388305664063 -0.64399456977844238281 -0.61482298374176025391 -0.59178209304809570313 -0.57845330238342285156 -0.56997925043106079102 -0.56462550163269042969 -0.5520725250244140625 -0.53207814693450927734 -0.51834481954574584961 -0.51898211240768432617 -0.59767401218414306641 -0.88431704044342041016 -1.1956270933151245117 -1.3901925086975097656 -1.5750799179077148438 -1.6134620904922485352 -1.4797210693359375 -1.2291781902313232422 -0.95503520965576171875 -0.67433255910873413086 -0.49730521440505981445 -0.4610271155834197998 -0.44894248247146606445 -0.42953512072563171387 -0.40662497282028198242 -0.39365825057029724121 -0.39250585436820983887 -0.3943958282470703125 -0.3996728062629699707 -0.41128429770469665527 -0.4221070706844329834
-9999 -9999 -9999 -9999 -9999 -9999 -9999 -9999 -9999 -9999 -9999 -9999 -9999 -9999 -9999 -9999 -9999 -9999 -9999 -9999 -9999 -9999 -9999 -9999 -9999 -9999 -9999 -9999 -9999 -9999 -9999 -9999 -9999 -9999 -9999 -9999 -9999 -9999 -9999 -9999 -0.59623992443084716797 -0.5932559967041015625 -0.58748078346252441406 -0.58500176668167114258 -0.58753210306167602539 -0.59870296716690063477 -0.62919378280639648438 -0.71328908205032348633 -0.87822884321212768555 -1.0374538898468017578 -1.137420654296875 -1.1585782766342163086 -1.0579563379287719727 -0.95498061180114746094 -0.89570498466491699219 -0.85434651374816894531 -0.82603675127029418945 -0.83551323413848876953 -0.91882115602493286133 -1.0517355203628540039 -1.2482300996780395508 -1.4564763307571411133 -1.6132940053939819336 -1.673407435417175293 -1.7172521352767944336 -1.7749570608139038086 -1.8372465372085571289 -1.870724797248840332 -1.9079272747039794922 -1.9615039825439453125 -2.0176465511322021484 -2.0470473766326904297 -2.0646681785583496094 -2.0814290046691894531 -2.0923411846160888672 -2.0874946117401123047 -2.0836765766143798828 -2.0826590061187744141 -2.0771911144256591797 -2.0808866024017333984 -2.0978918075561523438 -2.0964725017547607422 -2.0897033214569091797 -2.0913836956024169922 -2.0992171764373779297 -2.1055212020874023438 -2.1121273040771484375 -2.1160421371459960938 -2.1119425296783447266 -2.0804598331451416016 -2.0167088508605957031 -1.9293138980865478516 -1.8816661834716796875 -1.8686368465423583984 -1.8765802383422851563 -1.8916270732879638672 -1.9074099063873291016 -1.9121760129928588867 -1.9077283143997192383 -1.8608574867248535156 -1.7666742801666259766 -1.7617626190185546875 -1.8691427707672119141 -1.8676037788391113281 -1.7598837614059448242 -1.6152317523956298828 -1.5693563222885131836 -1.6687831878662109375 -1.852303624153137207 -2.0060098171234130859 -2.028697967529296875 -1.9982464313507080078 -1.9453372955322265625 -1.9052512645721435547 -1.840323328971862793 -1.7147052288055419922 -1.5759301185607910156 -1.4028209447860717773 -1.1850876808166503906 -0.92438048124313354492 -0.85198760032653808594 -0.82764357328414916992 -0.80488169193267822266 -0.7867768406867980957 -0.77261912822723388672 -0.7732607722282409668 -0.7907733917236328125 -0.80897045135498046875 -0.82046532630920410156 -0.82332623004913330078 -0.82126504182815551758 -0.81460589170455932617 -0.80512398481369018555 -0.80143564939498901367 -0.80192148685455322266 -0.82295459508895874023 -0.86679857969284057617 -0.89792484045028686523 -0.91315793991088867188 -0.91187584400177001953 -0.89249563217163085938 -0.86651313304901123047 -0.83814144134521484375 -0.80953139066696166992 -0.78155469894409179688 -0.76563817262649536133 -0.75461041927337646484 -0.74554872512817382813 -0.73416078090667724609 -0.71388614177703857422 -0.68938088417053222656 -0.66489320993423461914 -0.6380615234375 -0.6138833165168762207 -0.59728449583053588867 -0.58949673175811767578 -0.58776944875717163086 -0.57587456703186035156 -0.54971253871917724609 -0.52961409091949462891 -0.5515664219856262207 -0.7760537266731262207 -1.127222895622253418 -1.3978859186172485352 -1.5444197654724121094 -1.6137651205062866211 -1.6181029081344604492 -1.4647295475006103516 -1.1803433895111083984 -0.84959483146667480469 -0.58524906635284423828 -0.4792270660400390625 -0.46073287725448608398 -0.45462507009506225586 -0.43777415156364440918 -0.41941049695014953613 -0.4084021151065826416 -0.40773814916610717773 -0.41346514225006103516 -0.42147210240364074707 -0.43317803740501403809 -0.44419685006141662598
-9999 -9999 -9999 -9999 -9999 -9999 -9999 -9999 -9999 -9999 -9999 -9999 -9999 -9999 -9999 -9999 -9999 -9999 -9999 -9999 -9999 -9999 -9999 -9999 -9999 -9999 -9999 -9999 -9999 -9999 -9999 -9999 -9999 -9999 -9999 -9999 -9999 -9999 -9999 -9999 -0.59601181745529174805 -0.59420543909072875977 -0.59564995765686035156 -0.60055518150329589844 -0.60927152633666992188 -0.62315517663955688477 -0.64461767673492431641 -0.73812443017959594727 -0.89363086223602294922 -1.0410449504852294922 -1.0957473516464233398 -1.0789225101470947266 -0.96486103534698486328 -0.86024200916290283203 -0.85501050949096679688 -0.90756374597549438477 -0.93307077884674072266 -0.94737762212753295898 -0.98552227020263671875 -1.0844746828079223633 -1.2890542745590209961 -1.5226808786392211914 -1.6882416009902954102 -1.7595571279525756836 -1.7947430610656738281 -1.839989781379699707 -1.8950276374816894531 -1.9313133955001831055 -1.9539359807968139648 -1.9913358688354492188 -2.0291686058044433594 -2.0540227890014648438 -2.0722594261169433594 -2.0888323783874511719 -2.0989716053009033203 -2.1004698276519775391 -2.1009306907653808594 -2.0986773967742919922 -2.087085723876953125 -2.0803506374359130859 -2.0983922481536865234 -2.0998046398162841797 -2.0976083278656005859 -2.0973522663116455078 -2.1002438068389892578 -2.1076626777648925781 -2.1177425384521484375 -2.1272063255310058594 -2.1267087459564208984 -2.1001582145690917969 -2.0402536392211914063 -1.9461269378662109375 -1.8937641382217407227 -1.8915469646453857422 -1.9092236757278442383 -1.9225025177001953125 -1.9550069570541381836 -1.9887574911117553711 -1.9720031023025512695 -1.907236933708190918 -1.8124358654022216797 -1.7941441535949707031 -1.8897246122360229492 -1.9066836833953857422 -1.8298147916793823242 -1.6429620981216430664 -1.5094044208526611328 -1.6016695499420166016 -1.79662322998046875 -1.9763535261154174805 -2.0304982662200927734 -1.9976533651351928711 -1.9248344898223876953 -1.8703719377517700195 -1.7878551483154296875 -1.6831535100936889648 -1.5496780872344970703 -1.3971412181854248047 -1.2135834693908691406 -0.98096394538879394531 -0.85841482877731323242 -0.83019810914993286133 -0.80600440502166748047 -0.78728479146957397461 -0.77359592914581298828 -0.77709013223648071289 -0.79858183860778808594 -0.82031518220901489258 -0.83501213788986206055 -0.83927899599075317383 -0.83709812164306640625 -0.83019328117370605469 -0.81889629364013671875 -0.80869120359420776367 -0.80818319320678710938 -0.83023208379745483398 -0.86914587020874023438 -0.90795183181762695313 -0.9304301142692565918 -0.93017464876174926758 -0.90927708148956298828 -0.88180297613143920898 -0.8549671173095703125 -0.8262646794319152832 -0.79832637310028076172 -0.78290265798568725586 -0.77259117364883422852 -0.76306444406509399414 -0.74877476692199707031 -0.73138976097106933594 -0.71020424365997314453 -0.68746715784072875977 -0.66940528154373168945 -0.65519064664840698242 -0.64017862081527709961 -0.63014930486679077148 -0.62192755937576293945 -0.59429347515106201172 -0.55914831161499023438 -0.53957515954971313477 -0.6466115117073059082 -1.0040000677108764648 -1.3547127246856689453 -1.6079427003860473633 -1.6885211467742919922 -1.6848112344741821289 -1.6071623563766479492 -1.3916685581207275391 -1.1378675699234008789 -0.87437635660171508789 -0.60049510002136230469 -0.49098616838455200195 -0.46618670225143432617 -0.46580424904823303223 -0.44956433773040771484 -0.43448221683502197266 -0.42603233456611633301 -0.42521551251411437988 -0.43070584535598754883 -0.43945536017417907715 -0.45082744956016540527 -0.45951253175735473633
-9999 -9999 -9999 -9999 -9999 -9999 -9999 -9999 -9999 -9999 -9999 -9999 -9999 -9999 -9999 -9999 -9999 -9999 -9999 -9999 -9999 -9999 -9999 -9999 -9999 -9999 -9999 -9999 -9999 -9999 -9999 -9999 -9999 -9999 -9999 -9999 -9999 -9999 -9999 -9999 -0.59501439332962036133 -0.59987097978591918945 -0.60402852296829223633 -0.61215245723724365234 -0.62410551309585571289 -0.63880205154418945313 -0.6634547114372253418 -0.78726941347122192383 -0.94036144018173217773 -1.0689989328384399414 -1.0869417190551757813 -1.0192400217056274414 -0.94225138425827026367 -0.91617834568023681641 -0.95661157369613647461 -1.0166718959808349609 -1.0456944704055786133 -1.0473841428756713867 -1.0551177263259887695 -1.1264542341232299805 -1.3141775131225585938 -1.5736868381500244141 -1.7705179452896118164 -1.8448855876922607422 -1.8759100437164306641 -1.9060921669006347656 -1.9513746500015258789 -2.0016295909881591797 -2.0162739753723144531 -2.0271139144897460938 -2.0435216426849365234 -2.0644507408142089844 -2.0829899311065673828 -2.0967254638671875 -2.1017816066741943359 -2.1091859340667724609 -2.1173264980316162109 -2.1134011745452880859 -2.1039977073669433594 -2.0984938144683837891 -2.0999779701232910156 -2.1003344058990478516 -2.1007819175720214844 -2.100376129150390625 -2.1002652645111083984 -2.1065590381622314453 -2.1230061054229736328 -2.1446840763092041016 -2.1514413356781005859 -2.1280901432037353516 -2.0763051509857177734 -1.9912714958190917969 -1.9409812688827514648 -1.9379038810729980469 -1.9593527317047119141 -1.9821451902389526367 -2.0110290050506591797 -2.0352025032043457031 -2.0239837169647216797 -1.9702754020690917969 -1.9141459465026855469 -1.9064728021621704102 -1.9620199203491210938 -1.9687688350677490234 -1.8941136598587036133 -1.7168768644332885742 -1.5791727304458618164 -1.6454540491104125977 -1.8146755695343017578 -1.9758241176605224609 -2.0290405750274658203 -1.9635295867919921875 -1.8429479598999023438 -1.767125248908996582 -1.6929837465286254883 -1.5953747034072875977 -1.4647711515426635742 -1.3104251623153686523 -1.144185185432434082 -0.96995514631271362305 -0.86404258012771606445 -0.83439821004867553711 -0.8092778325080871582 -0.78949236869812011719 -0.77550590038299560547 -0.78367882966995239258 -0.81106394529342651367 -0.83457088470458984375 -0.85232371091842651367 -0.85764431953430175781 -0.85519129037857055664 -0.84897238016128540039 -0.84122127294540405273 -0.83636075258255004883 -0.84374856948852539063 -0.85770416259765625 -0.88034921884536743164 -0.92987543344497680664 -0.95109283924102783203 -0.94987583160400390625 -0.9349002838134765625 -0.90830010175704956055 -0.87529957294464111328 -0.84592044353485107422 -0.8146426081657409668 -0.7970415949821472168 -0.78937351703643798828 -0.78222095966339111328 -0.7676340937614440918 -0.7456652522087097168 -0.72489887475967407227 -0.70764696598052978516 -0.69515961408615112305 -0.68693017959594726563 -0.67908591032028198242 -0.67276394367218017578 -0.65955156087875366211 -0.61672252416610717773 -0.57971388101577758789 -0.60830515623092651367 -0.81527698040008544922 -1.1893450021743774414 -1.5127127170562744141 -1.7311086654663085938 -1.7395529747009277344 -1.6412959098815917969 -1.466427922248840332 -1.272410273551940918 -1.1228965520858764648 -0.98591601848602294922 -0.74638700485229492188 -0.52962863445281982422 -0.46719518303871154785 -0.4686858057975769043 -0.45986139774322509766 -0.44883611798286437988 -0.44308200478553771973 -0.44326364994049072266 -0.44794318079948425293 -0.4566981196403503418 -0.47267800569534301758 -0.49150732159614562988
-9999 -9999 -9999 -9999 -9999 -9999 -9999 -9999 -9999 -9999 -9999 -9999 -9999 -9999 -9999 -9999 -9999 -9999 -9999 -9999 -9999 -9999 -9999 -9999 -9999 -9999 -9999 -9999 -9999 -9999 -9999 -9999 -9999 -9999 -9999 -9999 -9999 -9999 -9999 -9999 -9999 -0.60269743204116821289 -0.60971945524215698242 -0.61783546209335327148 -0.63259309530258178711 -0.65056282281875610352 -0.70067620277404785156 -0.86321240663528442383 -1.0108187198638916016 -1.1279166936874389648 -1.1582295894622802734 -1.1036365032196044922 -1.0113472938537597656 -0.99356698989868164063 -1.059832453727722168 -1.1257529258728027344 -1.1508468389511108398 -1.1563473939895629883 -1.1655604839324951172 -1.2532262802124023438 -1.4509143829345703125 -1.6673674583435058594 -1.8294130563735961914 -1.8996429443359375 -1.9281747341156005859 -1.9580333232879638672 -1.9963563680648803711 -2.0280363559722900391 -2.0317759513854980469 -2.0339145660400390625 -2.0443017482757568359 -2.0661478042602539063 -2.0904231071472167969 -2.0992767810821533203 -2.1028234958648681641 -2.1120395660400390625 -2.1206839084625244141 -2.1205885410308837891 -2.1130471229553222656 -2.1032390594482421875 -2.1003463268280029297 -2.1033170223236083984 -2.1079013347625732422 -2.1079638004302978516 -2.1027789115905761719 -2.1029863357543945313 -2.1205050945281982422 -2.1503989696502685547 -2.1657426357269287109 -2.1533615589141845703 -2.1062757968902587891 -2.0344760417938232422 -1.9935849905014038086 -1.9869862794876098633 -2.0054535865783691406 -2.0317983627319335938 -2.0561120510101318359 -2.0736315250396728516 -2.0622031688690185547 -2.0296120643615722656 -1.995990753173828125 -1.9945566654205322266 -2.0237202644348144531 -2.0219171047210693359 -1.9651474952697753906 -1.8459469079971313477 -1.7445594072341918945 -1.7706010341644287109 -1.8908216953277587891 -2.0043342113494873047 -2.0266771316528320313 -1.9224951267242431641 -1.7678946256637573242 -1.6752723455429077148 -1.5916746854782104492 -1.4716497659683227539 -1.3103414773941040039 -1.1252353191375732422 -0.98591226339340209961 -0.89745414257049560547 -0.86161214113235473633 -0.84084361791610717773 -0.81735730171203613281 -0.79889547824859619141 -0.79399317502975463867 -0.80738532543182373047 -0.83271700143814086914 -0.85344129800796508789 -0.86855864524841308594 -0.87234771251678466797 -0.87132406234741210938 -0.86760979890823364258 -0.86297720670700073242 -0.86206316947937011719 -0.86119627952575683594 -0.85693526268005371094 -0.89605909585952758789 -0.9551232457160949707 -0.97846192121505737305 -0.97634589672088623047 -0.95763796567916870117 -0.9287478327751159668 -0.89311039447784423828 -0.86225628852844238281 -0.82882177829742431641 -0.80942922830581665039 -0.8054974675178527832 -0.80329078435897827148 -0.79009670019149780273 -0.76489853858947753906 -0.74082911014556884766 -0.72666954994201660156 -0.71839821338653564453 -0.71198117733001708984 -0.70414626598358154297 -0.69496196508407592773 -0.67911344766616821289 -0.64254003763198852539 -0.62181890010833740234 -0.73867642879486083984 -0.96253836154937744141 -1.2495185136795043945 -1.54351806640625 -1.7450592517852783203 -1.7444955110549926758 -1.6134773492813110352 -1.3874796628952026367 -1.2096009254455566406 -1.0933212041854858398 -0.97326958179473876953 -0.73860365152359008789 -0.53230023384094238281 -0.46694409847259521484 -0.46672931313514709473 -0.46630370616912841797 -0.46135827898979187012 -0.45731058716773986816 -0.45768827199935913086 -0.4648036956787109375 -0.47846299409866333008 -0.4992504417896270752 -0.5178553462028503418
-9999 -9999 -9999 -9999 -9999 -9999 -9999 -9999 -9999 -9999 -9999 -9999 -9999 -9999 -9999 -9999 -9999 -9999 -9999 -9999 -9999 -9999 -9999 -9999 -9999 -9999 -9999 -9999 -9999 -9999 -9999 -9999 -9999 -9999 -9999 -9999 -9999 -9999 -9999 -9999 -9999 -9999 -0.60840153694152832031 -0.61357736587524414063 -0.63039100170135498047 -0.65747785568237304688 -0.74813288450241088867 -0.90969961881637573242 -1.0467625856399536133 -1.1777412891387939453 -1.2654020786285400391 -1.2766693830490112305 -1.2232490777969360352 -1.1971936225891113281 -1.2252248525619506836 -1.2689772844314575195 -1.2881771326065063477 -1.2943224906921386719 -1.3251116275787353516 -1.4380022287368774414 -1.6338173151016235352 -1.783860325813293457 -1.8852877616882324219 -1.9321606159210205078 -1.9666543006896972656 -2.0012373924255371094 -2.0261623859405517578 -2.0317332744598388672 -2.0318737030029296875 -2.0332148075103759766 -2.0393724441528320313 -2.0545041561126708984 -2.0840730667114257813 -2.0989716053009033203 -2.1033775806427001953 -2.1131017208099365234 -2.1234467029571533203 -2.1281266212463378906 -2.1258113384246826172 -2.1117370128631591797 -2.1014125347137451172 -2.1108343601226806641 -2.1236097812652587891 -2.1308717727661132813 -2.1231467723846435547 -2.1155169010162353516 -2.1228530406951904297 -2.1479990482330322266 -2.1663687229156494141 -2.1661832332611083984 -2.1366419792175292969 -2.0730528831481933594 -2.0294468402862548828 -2.0277333259582519531 -2.0473966598510742188 -2.0693466663360595703 -2.0985670089721679688 -2.1213371753692626953 -2.1073780059814453125 -2.0858640670776367188 -2.0695374011993408203 -2.0622065067291259766 -2.0596501827239990234 -2.0512557029724121094 -2.0278594493865966797 -1.9538266658782958984 -1.877930760383605957 -1.8685047626495361328 -1.9444193840026855469 -2.0226016044616699219 -2.0280122756958007813 -1.9392281770706176758 -1.7955791950225830078 -1.6769020557403564453 -1.5689685344696044922 -1.4169085025787353516 -1.1948113441467285156 -0.98913645744323730469 -0.92081952095031738281 -0.87970197200775146484 -0.86510610580444335938 -0.85085332393646240234 -0.82904863357543945313 -0.80933058261871337891 -0.8106053471565246582 -0.83265566825866699219 -0.85754877328872680664 -0.87077957391738891602 -0.87988650798797607422 -0.88401842117309570313 -0.88383531570434570313 -0.88020265102386474609 -0.87438219785690307617 -0.87039875984191894531 -0.86569255590438842773 -0.86962968111038208008 -0.92448621988296508789 -0.98274523019790649414 -1.0038367509841918945 -0.99997341632843017578 -0.97587025165557861328 -0.94506931304931640625 -0.91266578435897827148 -0.88183236122131347656 -0.85946190357208251953 -0.84448444843292236328 -0.83399510383605957031 -0.82825475931167602539 -0.81798750162124633789 -0.80104213953018188477 -0.77890628576278686523 -0.75789338350296020508 -0.75216388702392578125 -0.74256414175033569336 -0.72832077741622924805 -0.71548748016357421875 -0.69452232122421264648 -0.67373114824295043945 -0.71288120746612548828 -0.90577578544616699219 -1.1022773981094360352 -1.2690556049346923828 -1.5492112636566162109 -1.7477425336837768555 -1.7589567899703979492 -1.635306239128112793 -1.3780409097671508789 -1.1982603073120117188 -1.0674577951431274414 -0.91307598352432250977 -0.69341856241226196289 -0.56850802898406982422 -0.50846648216247558594 -0.50561660528182983398 -0.50348913669586181641 -0.4937928617000579834 -0.48377209901809692383 -0.48075938224792480469 -0.48930704593658447266 -0.50464278459548950195 -0.53086775541305541992 -0.53876441717147827148
-9999 -9999 -9999 -9999 -9999 -9999 -9999 -9999 -9999 -9999 -9999 -9999 -9999 -9999 -9999 -9999 -9999 -9999 -9999 -9999 -9999 -9999 -9999 -9999 -9999 -9999 -9999 -9999 -9999 -9999 -9999 -9999 -9999 -9999 -9999 -9999 -9999 -9999 -9999 -9999 -9999 -9999 -0.59303367137908935547 -0.5935185551643371582 -0.61155188083648681641 -0.65009218454360961914 -0.7588405609130859375 -0.91059422492980957031 -1.0279340744018554688 -1.1567229032516479492 -1.2944864034652709961 -1.4000269174575805664 -1.4305170774459838867 -1.4372664690017700195 -1.4496659040451049805 -1.4914087057113647461 -1.5119293928146362305 -1.4962031841278076172 -1.5200539827346801758 -1.6355805397033691406 -1.7765176296234130859 -1.8622806072235107422 -1.9001204967498779297 -1.9358909130096435547 -1.9840784072875976563 -2.0207362174987792969 -2.0297579765319824219 -2.031368255615234375 -2.0317873954772949219 -2.0320570468902587891 -2.0328869819641113281 -2.0256772041320800781 -2.0170562267303466797 -2.0507264137268066406 -2.0936439037322998047 -2.1133768558502197266 -2.12859344482421875 -2.1384458541870117188 -2.1411404609680175781 -2.1238269805908203125 -2.1067163944244384766 -2.1190404891967773438 -2.138492584228515625 -2.1541025638580322266 -2.15053558349609375 -2.1393389701843261719 -2.1344189643859863281 -2.1463165283203125 -2.162769317626953125 -2.1682944297790527344 -2.1607787609100341797 -2.1091043949127197266 -2.0514826774597167969 -2.058261871337890625 -2.0862748622894287109 -2.1029343605041503906 -2.1283857822418212891 -2.1511862277984619141 -2.1459357738494873047 -2.1359376907348632813 -2.1347928047180175781 -2.1225380897521972656 -2.1021039485931396484 -2.0844385623931884766 -2.0608584880828857422 -1.9893261194229125977 -1.9068393707275390625 -1.8981099128723144531 -1.9609333276748657227 -2.0272758007049560547 -2.0305018424987792969 -1.980639338493347168 -1.8750504255294799805 -1.7585957050323486328 -1.6440547704696655273 -1.5007839202880859375 -1.3369545936584472656 -1.1695947647094726563 -1.0373834371566772461 -0.93548148870468139648 -0.89507538080215454102 -0.87765556573867797852 -0.85041290521621704102 -0.83184218406677246094 -0.83238607645034790039 -0.85324209928512573242 -0.87511038780212402344 -0.88640326261520385742 -0.89533233642578125 -0.89882987737655639648 -0.89740931987762451172 -0.89311206340789794922 -0.88704198598861694336 -0.88131433725357055664 -0.88095211982727050781 -0.90378862619400024414 -0.96320253610610961914 -1.0033795833587646484 -1.0109331607818603516 -1.0072796344757080078 -0.98820948600769042969 -0.95977234840393066406 -0.93251132965087890625 -0.91136246919631958008 -0.89446043968200683594 -0.8790836334228515625 -0.86676585674285888672 -0.85446619987487792969 -0.84253984689712524414 -0.82805395126342773438 -0.81405806541442871094 -0.80558508634567260742 -0.80411970615386962891 -0.79269570112228393555 -0.76343566179275512695 -0.7326157689094543457 -0.71315371990203857422 -0.71717762947082519531 -0.81656193733215332031 -1.0209115743637084961 -1.1870779991149902344 -1.3564836978912353516 -1.6316711902618408203 -1.7887157201766967773 -1.8135410547256469727 -1.6899478435516357422 -1.4205906391143798828 -1.2340569496154785156 -1.0942767858505249023 -0.96099269390106201172 -0.81549155712127685547 -0.68619531393051147461 -0.59830379486083984375 -0.5684725642204284668 -0.54727011919021606445 -0.52717649936676025391 -0.51260423660278320313 -0.50666284561157226563 -0.51061981916427612305 -0.52556282281875610352 -0.56514662504196166992 -0.56144493818283081055
-9999 -9999 -9999 -9999 -9999 -9999 -9999 -9999 -9999 -9999 -9999 -9999 -9999 -9999 -9999 -9999 -9999 -9999 -9999 -9999 -9999 -9999 -9999 -9999 -9999 -9999 -9999 -9999 -9999 -9999 -9999 -9999 -9999 -9999 -9999 -9999 -9999 -9999 -9999 -9999 -9999 -9999 -0.56801068782806396484 -0.56341665983200073242 -0.58424103260040283203 -0.63263398408889770508 -0.72768557071685791016 -0.8704459071159362793 -0.96440517902374267578 -1.0721724033355712891 -1.2473239898681640625 -1.4078356027603149414 -1.5077052116394042969 -1.5669122934341430664 -1.5938962697982788086 -1.6435687541961669922 -1.686501622200012207 -1.6834154129028320313 -1.6950858831405639648 -1.7873018980026245117 -1.8656519651412963867 -1.8929278850555419922 -1.8932718038558959961 -1.9032956361770629883 -1.9415086507797241211 -1.9819023609161376953 -2.0023131370544433594 -2.0175015926361083984 -2.0277829170227050781 -2.0309481620788574219 -2.0302102565765380859 -2.0110733509063720703 -1.9744586944580078125 -2.0097699165344238281 -2.0745859146118164063 -2.1124351024627685547 -2.1347460746765136719 -2.1514704227447509766 -2.1610858440399169922 -2.1466164588928222656 -2.1333765983581542969 -2.1376628875732421875 -2.1500806808471679688 -2.1637985706329345703 -2.1674957275390625 -2.1622109413146972656 -2.1531958580017089844 -2.1535522937774658203 -2.1620430946350097656 -2.1680812835693359375 -2.1681513786315917969 -2.1440362930297851563 -2.0931515693664550781 -2.0980725288391113281 -2.1248369216918945313 -2.1432247161865234375 -2.1584057807922363281 -2.1769220829010009766 -2.1814854145050048828 -2.1765949726104736328 -2.1749036312103271484 -2.1634566783905029297 -2.1439983844757080078 -2.1256248950958251953 -2.0993878841400146484 -2.0265765190124511719 -1.932181239128112793 -1.9049936532974243164 -1.9589127302169799805 -2.0270898342132568359 -2.03115081787109375 -2.0078241825103759766 -1.9317078590393066406 -1.8434503078460693359 -1.7411818504333496094 -1.622666478157043457 -1.5022149085998535156 -1.3697745800018310547 -1.240141749382019043 -1.1140997409820556641 -1.0289777517318725586 -0.95628976821899414063 -0.88233619928359985352 -0.85190272331237792969 -0.84905660152435302734 -0.86641198396682739258 -0.8894144892692565918 -0.90232139825820922852 -0.91117662191390991211 -0.91397392749786376953 -0.91134220361709594727 -0.906848907470703125 -0.90277725458145141602 -0.90170681476593017578 -0.90864127874374389648 -0.93995559215545654297 -0.98871225118637084961 -1.0174866914749145508 -1.0245126485824584961 -1.0214173793792724609 -1.0055581331253051758 -0.98323714733123779297 -0.96182513236999511719 -0.94775211811065673828 -0.93329787254333496094 -0.92070215940475463867 -0.90531700849533081055 -0.88045287132263183594 -0.86285519599914550781 -0.84846520423889160156 -0.84006077051162719727 -0.83883482217788696289 -0.83441638946533203125 -0.82131201028823852539 -0.7973270416259765625 -0.75211155414581298828 -0.7301502227783203125 -0.75600320100784301758 -0.92104369401931762695 -1.1419546604156494141 -1.2891639471054077148 -1.4722074270248413086 -1.7162679433822631836 -1.8532341718673706055 -1.8642395734786987305 -1.7225171327590942383 -1.4676345586776733398 -1.2683186531066894531 -1.139178156852722168 -1.0336431264877319336 -0.92645102739334106445 -0.80783933401107788086 -0.67210161685943603516 -0.61107683181762695313 -0.57798117399215698242 -0.55343151092529296875 -0.53924900293350219727 -0.53251606225967407227 -0.53295040130615234375 -0.55529874563217163086 -0.59776264429092407227 -0.58494836091995239258
-9999 -9999 -9999 -9999 -9999 -9999 -9999 -9999 -9999 -9999 -9999 -9999 -9999 -9999 -9999 -9999 -9999 -9999 -9999 -9999 -9999 -9999 -9999 -9999 -9999 -9999 -9999 -9999 -9999 -9999 -9999 -9999 -9999 -9999 -9999 -9999 -9999 -9999 -9999 -9999 -9999 -9999 -0.55621987581253051758 -0.55327719449996948242 -0.56974714994430541992 -0.61258494853973388672 -0.68673497438430786133 -0.8243897557258605957 -0.92289906740188598633 -1.0417120456695556641 -1.2212386131286621094 -1.3838329315185546875 -1.5100324153900146484 -1.6158891916275024414 -1.6805382966995239258 -1.7314795255661010742 -1.7699410915374755859 -1.8023077249526977539 -1.8441888093948364258 -1.8794823884963989258 -1.8935161828994750977 -1.8828756809234619141 -1.8152418136596679688 -1.7552627325057983398 -1.8022367954254150391 -1.8933475017547607422 -1.9413299560546875 -1.9716064929962158203 -1.9967414140701293945 -2.0161995887756347656 -2.0263502597808837891 -2.0299139022827148438 -2.0423176288604736328 -2.0700700283050537109 -2.0933134555816650391 -2.1125085353851318359 -2.1382973194122314453 -2.1602673530578613281 -2.1677815914154052734 -2.1649167537689208984 -2.1603901386260986328 -2.1573400497436523438 -2.1605243682861328125 -2.16657257080078125 -2.1694705486297607422 -2.1696965694427490234 -2.1651463508605957031 -2.1630802154541015625 -2.1660974025726318359 -2.1685807704925537109 -2.1686065196990966797 -2.1570415496826171875 -2.11777496337890625 -2.1222052574157714844 -2.1509802341461181641 -2.1701135635375976563 -2.1795868873596191406 -2.1906445026397705078 -2.1999514102935791016 -2.2024064064025878906 -2.1926746368408203125 -2.1776275634765625 -2.1674172878265380859 -2.1599962711334228516 -2.1376845836639404297 -2.0753512382507324219 -2.0036993026733398438 -1.9716839790344238281 -1.99788665771484375 -2.0299329757690429688 -2.0168635845184326172 -1.9803025722503662109 -1.9288641214370727539 -1.85947418212890625 -1.7809127569198608398 -1.6926391124725341797 -1.5871522426605224609 -1.468930363655090332 -1.3505098819732666016 -1.235413670539855957 -1.1378502845764160156 -1.0096011161804199219 -0.90464425086975097656 -0.86991810798645019531 -0.86894130706787109375 -0.89002573490142822266 -0.91589432954788208008 -0.92433172464370727539 -0.9304714202880859375 -0.93192386627197265625 -0.92695927619934082031 -0.92182135581970214844 -0.91934436559677124023 -0.92188787460327148438 -0.93365931510925292969 -0.96758300065994262695 -1.0076366662979125977 -1.0350694656372070313 -1.0491026639938354492 -1.0491900444030761719 -1.0344120264053344727 -1.0149885416030883789 -0.99623245000839233398 -0.98747795820236206055 -0.97388249635696411133 -0.96136134862899780273 -0.94683313369750976563 -0.92098885774612426758 -0.89032286405563354492 -0.86974811553955078125 -0.86536741256713867188 -0.86661612987518310547 -0.85915660858154296875 -0.83822214603424072266 -0.81436318159103393555 -0.76886713504791259766 -0.73889368772506713867 -0.82396286725997924805 -1.0704132318496704102 -1.2510331869125366211 -1.3677303791046142578 -1.5604491233825683594 -1.7979780435562133789 -1.885298609733581543 -1.8048865795135498047 -1.6524264812469482422 -1.4861519336700439453 -1.3334869146347045898 -1.1984651088714599609 -1.0830689668655395508 -0.97345811128616333008 -0.86003267765045166016 -0.71709674596786499023 -0.6300360560417175293 -0.59456664323806762695 -0.57184481620788574219 -0.56050193309783935547 -0.55576527118682861328 -0.55533212423324584961 -0.58485513925552368164 -0.63882040977478027344 -0.6079686284065246582
-9999 -9999 -9999 -9999 -9999 -9999 -9999 -9999 -9999 -9999 -9999 -9999 -9999 -9999 -9999 -9999 -9999 -9999 -9999 -9999 -9999 -9999 -9999 -9999 -9999 -9999 -9999 -9999 -9999 -9999 -9999 -9999 -9999 -9999 -9999 -9999 -9999 -9999 -9999 -9999 -9999 -9999 -9999 -0.55856758356094360352 -0.56594991683959960938 -0.59122216701507568359 -0.64883112907409667969 -0.7803795933723449707 -0.91533440351486206055 -1.0693360567092895508 -1.2429012060165405273 -1.3918708562850952148 -1.5214540958404541016 -1.6287630796432495117 -1.7124370336532592773 -1.7576766014099121094 -1.7789551019668579102 -1.8168513774871826172 -1.8559701442718505859 -1.8534423112869262695 -1.8534237146377563477 -1.8294103145599365234 -1.7175475358963012695 -1.6311758756637573242 -1.7048043012619018555 -1.8330810070037841797 -1.9062414169311523438 -1.9459537267684936523 -1.9782582521438598633 -2.0064065456390380859 -2.0220484733581542969 -2.0381247997283935547 -2.0799248218536376953 -2.0997333526611328125 -2.1008560657501220703 -2.1076867580413818359 -2.1269788742065429688 -2.1465737819671630859 -2.1591632366180419922 -2.1661746501922607422 -2.1682257652282714844 -2.1677534580230712891 -2.1677279472351074219 -2.1696972846984863281 -2.1754395961761474609 -2.1784167289733886719 -2.1745343208312988281 -2.1717970371246337891 -2.1730375289916992188 -2.1741728782653808594 -2.1719913482666015625 -2.1650032997131347656 -2.1480998992919921875 -2.1497359275817871094 -2.1709275245666503906 -2.186290740966796875 -2.1971240043640136719 -2.2066552639007568359 -2.2164800167083740234 -2.2200205326080322266 -2.2010693550109863281 -2.1807537078857421875 -2.1703562736511230469 -2.1687109470367431641 -2.1607124805450439453 -2.1139068603515625 -2.0526521205902099609 -2.0476512908935546875 -2.0594029426574707031 -2.0371723175048828125 -1.9597038030624389648 -1.8791218996047973633 -1.8306412696838378906 -1.7570337057113647461 -1.6784741878509521484 -1.5824828147888183594 -1.4996056556701660156 -1.4235370159149169922 -1.3369319438934326172 -1.2346487045288085938 -1.1239159107208251953 -0.982311248779296875 -0.90774142742156982422 -0.88293886184692382813 -0.88701510429382324219 -0.9141165614128112793 -0.93841952085494995117 -0.94483494758605957031 -0.94755631685256958008 -0.9449322819709777832 -0.93777179718017578125 -0.93263077735900878906 -0.93136745691299438477 -0.93426239490509033203 -0.9473552703857421875 -0.98319923877716064453 -1.0194218158721923828 -1.0522587299346923828 -1.0706826448440551758 -1.0727415084838867188 -1.0626566410064697266 -1.0486748218536376953 -1.0282825231552124023 -1.0180648565292358398 -1.0069000720977783203 -0.99301099777221679688 -0.97139441967010498047 -0.94160926342010498047 -0.91116058826446533203 -0.8910992741584777832 -0.88633757829666137695 -0.88490301370620727539 -0.8733800053596496582 -0.84945261478424072266 -0.82434135675430297852 -0.78448730707168579102 -0.75808542966842651367 -0.89395284652709960938 -1.1659609079360961914 -1.3241517543792724609 -1.4402045011520385742 -1.6492662429809570313 -1.8637115955352783203 -1.8874493837356567383 -1.7843531370162963867 -1.6281028985977172852 -1.5089087486267089844 -1.3936622142791748047 -1.2621239423751831055 -1.1234878301620483398 -0.99420654773712158203 -0.89152818918228149414 -0.7730057835578918457 -0.64283096790313720703 -0.60184180736541748047 -0.58616727590560913086 -0.57997518777847290039 -0.58027380704879760742 -0.58719176054000854492 -0.62354183197021484375 -0.65940642356872558594 -0.60812813043594360352
-9999 -9999 -9999 -9999 -9999 -9999 -9999 -9999 -9999 -9999 -9999 -9999 -9999 -9999 -9999 -9999 -9999 -9999 -9999 -9999 -9999 -9999 -9999 -9999 -9999 -9999 -9999 -9999 -9999 -9999 -9999 -9999 -9999 -9999 -9999 -9999 -9999 -9999 -9999 -9999 -9999 -9999 -9999 -0.55915623903274536133 -0.56047230958938598633 -0.571796417236328125 -0.61543357372283935547 -0.71472465991973876953 -0.86651021242141723633 -1.0345206260681152344 -1.2057423591613769531 -1.3585157394409179688 -1.4978507757186889648 -1.6118044853210449219 -1.7108502388000488281 -1.7557229995727539063 -1.7598788738250732422 -1.7625746726989746094 -1.7481620311737060547 -1.7280421257019042969 -1.7190928459167480469 -1.7248631715774536133 -1.6563768386840820313 -1.6012790203094482422 -1.7173088788986206055 -1.8615946769714355469 -1.9178792238235473633 -1.961237788200378418 -1.9950584173202514648 -2.0145335197448730469 -2.0255017280578613281 -2.0383498668670654297 -2.0833809375762939453 -2.10009765625 -2.0998942852020263672 -2.0931050777435302734 -2.0914781093597412109 -2.1020934581756591797 -2.1140079498291015625 -2.1380786895751953125 -2.1610777378082275391 -2.1682600975036621094 -2.1684842109680175781 -2.1708850860595703125 -2.1813831329345703125 -2.1917371749877929688 -2.1909952163696289063 -2.1895875930786132813 -2.1904947757720947266 -2.1902124881744384766 -2.1843619346618652344 -2.1725084781646728516 -2.1653962135314941406 -2.1691937446594238281 -2.1859610080718994141 -2.20160675048828125 -2.2144687175750732422 -2.2230710983276367188 -2.2292871475219726563 -2.220195770263671875 -2.1956973075866699219 -2.1760532855987548828 -2.1688644886016845703 -2.1696655750274658203 -2.1707384586334228516 -2.1498124599456787109 -2.1085202693939208984 -2.1117017269134521484 -2.1322565078735351563 -2.0336332321166992188 -1.8688564300537109375 -1.7619246244430541992 -1.6930260658264160156 -1.6305959224700927734 -1.5498437881469726563 -1.4290713071823120117 -1.3254399299621582031 -1.2600132226943969727 -1.2095386981964111328 -1.1355565786361694336 -1.029673457145690918 -0.93894588947296142578 -0.9151490330696105957 -0.90464031696319580078 -0.9091288447380065918 -0.93142986297607421875 -0.95666658878326416016 -0.96886092424392700195 -0.97107785940170288086 -0.96528661251068115234 -0.95382970571517944336 -0.94184929132461547852 -0.9379876255989074707 -0.93930351734161376953 -0.9557603001594543457 -0.99194580316543579102 -1.032189488410949707 -1.0748714208602905273 -1.0954070091247558594 -1.1015195846557617188 -1.0948089361190795898 -1.084162592887878418 -1.0650658607482910156 -1.0481357574462890625 -1.031640172004699707 -1.0146976709365844727 -0.98834627866744995117 -0.95308458805084228516 -0.92910861968994140625 -0.91637253761291503906 -0.91288685798645019531 -0.91215950250625610352 -0.8977177739143371582 -0.86756348609924316406 -0.84067118167877197266 -0.81398195028305053711 -0.80377411842346191406 -0.931224822998046875 -1.2078880071640014648 -1.3928034305572509766 -1.5318216085433959961 -1.7604209184646606445 -1.8909765481948852539 -1.8922104835510253906 -1.8101851940155029297 -1.6470723152160644531 -1.5376534461975097656 -1.4437259435653686523 -1.3182127475738525391 -1.1584763526916503906 -1.0230727195739746094 -0.92954385280609130859 -0.79188406467437744141 -0.64002805948257446289 -0.59919488430023193359 -0.59619319438934326172 -0.59696167707443237305 -0.60838669538497924805 -0.63397425413131713867 -0.66263973712921142578 -0.66173511743545532227 -0.60072994232177734375
-9999 -9999 -9999 -9999 -9999 -9999 -9999 -9999 -9999 -9999 -9999 -9999 -9999 -9999 -9999 -9999 -9999 -9999 -9999 -9999 -9999 -9999 -9999 -9999 -9999 -9999 -9999 -9999 -9999 -9999 -9999 -9999 -9999 -9999 -9999 -9999 -9999 -9999 -9999 -9999 -9999 -9999 -9999 -9999 -0.5504938960075378418 -0.5504271388053894043 -0.57836782932281494141 -0.65037494897842407227 -0.79423153400421142578 -0.97262936830520629883 -1.1431276798248291016 -1.3053634166717529297 -1.4552291631698608398 -1.5834480524063110352 -1.6707323789596557617 -1.6994235515594482422 -1.6861585378646850586 -1.6669659614562988281 -1.6361430883407592773 -1.6046859025955200195 -1.6077855825424194336 -1.6423003673553466797 -1.6379098892211914063 -1.657862544059753418 -1.7650381326675415039 -1.8867139816284179688 -1.9369262456893920898 -1.9812488555908203125 -2.0160050392150878906 -2.0279471874237060547 -2.0316298007965087891 -2.0459916591644287109 -2.0870006084442138672 -2.1000998020172119141 -2.0970957279205322266 -2.0659747123718261719 -2.0482032299041748047 -2.0627579689025878906 -2.0811316967010498047 -2.1099555492401123047 -2.1423518657684326172 -2.16323089599609375 -2.1678655147552490234 -2.1695561408996582031 -2.1795506477355957031 -2.1970245838165283203 -2.2040369510650634766 -2.2067368030548095703 -2.2093718051910400391 -2.2109017372131347656 -2.2036976814270019531 -2.1784021854400634766 -2.1718316078186035156 -2.194393157958984375 -2.2088320255279541016 -2.2176351547241210938 -2.2308933734893798828 -2.2353982925415039063 -2.2338621616363525391 -2.2168664932250976563 -2.1913089752197265625 -2.1722049713134765625 -2.1694078445434570313 -2.1711344718933105469 -2.1707758903503417969 -2.1654238700866699219 -2.1522948741912841797 -2.1536190509796142578 -2.1132555007934570313 -1.9205100536346435547 -1.7321878671646118164 -1.6332128047943115234 -1.5727704763412475586 -1.5197354555130004883 -1.443032383918762207 -1.3244054317474365234 -1.1880650520324707031 -1.0931854248046875 -1.0765664577484130859 -1.0400791168212890625 -0.97572886943817138672 -0.93340384960174560547 -0.92246258258819580078 -0.91660255193710327148 -0.92084538936614990234 -0.9405028223991394043 -0.97329688072204589844 -0.99037575721740722656 -0.99231302738189697266 -0.98675310611724853516 -0.97570526599884033203 -0.96045571565628051758 -0.94918769598007202148 -0.95124280452728271484 -0.9720458984375 -1.0072370767593383789 -1.0501881837844848633 -1.0936586856842041016 -1.1197069883346557617 -1.1311354637145996094 -1.1222051382064819336 -1.1103544235229492188 -1.0928174257278442383 -1.0707038640975952148 -1.0481811761856079102 -1.0249029397964477539 -0.99675738811492919922 -0.96542489528656005859 -0.94492268562316894531 -0.93461060523986816406 -0.93227881193161010742 -0.93635588884353637695 -0.93202310800552368164 -0.89745956659317016602 -0.85760134458541870117 -0.83265441656112670898 -0.81659805774688720703 -0.94965189695358276367 -1.2315884828567504883 -1.4412919282913208008 -1.6222794055938720703 -1.8229420185089111328 -1.907904505729675293 -1.9025918245315551758 -1.8241065740585327148 -1.6768049001693725586 -1.571824193000793457 -1.4943540096282958984 -1.3804972171783447266 -1.222681879997253418 -1.0863313674926757813 -1.0126749277114868164 -0.83906149864196777344 -0.66780602931976318359 -0.6089184880256652832 -0.60974723100662231445 -0.62511146068572998047 -0.65602958202362060547 -0.69050574302673339844 -0.72370171546936035156 -0.68457353115081787109 -0.59999567270278930664
-9999 -9999 -9999 -9999 -9999 -9999 -9999 -9999 -9999 -9999 -9999 -9999 -9999 -9999 -9999 -9999 -9999 -9999 -9999 -9999 -9999 -9999 -9999 -9999 -9999 -9999 -9999 -9999 -9999 -9999 -9999 -9999 -9999 -9999 -9999 -9999 -9999 -9999 -9999 -9999 -9999 -9999 -9999 -9999 -0.5379479527473449707 -0.52806550264358520508 -0.53398811817169189453 -0.58814728260040283203 -0.70090788602828979492 -0.88295865058898925781 -1.0844532251358032227 -1.2556453943252563477 -1.4065893888473510742 -1.5271322727203369141 -1.5785526037216186523 -1.5753180980682373047 -1.5567008256912231445 -1.5442225933074951172 -1.5231471061706542969 -1.5051804780960083008 -1.5619297027587890625 -1.6429449319839477539 -1.7089810371398925781 -1.7670078277587890625 -1.8315995931625366211 -1.9041218757629394531 -1.9470708370208740234 -1.9944462776184082031 -2.0270872116088867188 -2.0318095684051513672 -2.03313446044921875 -2.0556874275207519531 -2.0912659168243408203 -2.0970740318298339844 -2.0775523185729980469 -2.0400831699371337891 -2.0276148319244384766 -2.0364618301391601563 -2.0591559410095214844 -2.0872552394866943359 -2.1132521629333496094 -2.1378657817840576172 -2.1558918952941894531 -2.1663463115692138672 -2.1750886440277099609 -2.1942758560180664063 -2.2103426456451416016 -2.2203154563903808594 -2.2262089252471923828 -2.23125457763671875 -2.2248735427856445313 -2.1853613853454589844 -2.1809661388397216797 -2.2132415771484375 -2.2326831817626953125 -2.2330000400543212891 -2.2364742755889892578 -2.2367880344390869141 -2.2331593036651611328 -2.2201650142669677734 -2.2022290229797363281 -2.1892824172973632813 -2.1921677589416503906 -2.1887080669403076172 -2.1786949634552001953 -2.1712653636932373047 -2.1681566238403320313 -2.1464209556579589844 -2.0022671222686767578 -1.7825120687484741211 -1.5940301418304443359 -1.4907611608505249023 -1.4347643852233886719 -1.3810186386108398438 -1.3228089809417724609 -1.2414482831954956055 -1.1166728734970092773 -1.026882171630859375 -1.0230714082717895508 -0.99965393543243408203 -0.96273517608642578125 -0.93752592802047729492 -0.92798376083374023438 -0.92198318243026733398 -0.92519646883010864258 -0.94632947444915771484 -0.98966193199157714844 -1.0069169998168945313 -1.0096999406814575195 -1.008198857307434082 -1.0024027824401855469 -0.99342894554138183594 -0.98322588205337524414 -0.98607158660888671875 -1.0044643878936767578 -1.0359547138214111328 -1.0747513771057128906 -1.1158730983734130859 -1.1434886455535888672 -1.1547672748565673828 -1.1493248939514160156 -1.1392526626586914063 -1.1276253461837768555 -1.0977513790130615234 -1.0596843957901000977 -1.0248875617980957031 -1.0049129724502563477 -0.9875653386116027832 -0.96914309263229370117 -0.9541981816291809082 -0.949207305908203125 -0.95434224605560302734 -0.95147991180419921875 -0.92590844631195068359 -0.87705314159393310547 -0.85763138532638549805 -0.88184255361557006836 -1.0767434835433959961 -1.3291410207748413086 -1.5231705904006958008 -1.7254756689071655273 -1.8793065547943115234 -1.9548608064651489258 -1.9403761625289916992 -1.8524068593978881836 -1.7418955564498901367 -1.6572982072830200195 -1.6072891950607299805 -1.5212024450302124023 -1.3784793615341186523 -1.2588924169540405273 -1.2072882652282714844 -1.0818221569061279297 -0.90207636356353759766 -0.72710019350051879883 -0.65480989217758178711 -0.66419774293899536133 -0.71881175041198730469 -0.76779007911682128906 -0.77972829341888427734 -0.69561088085174560547 -0.61124157905578613281
-9999 -9999 -9999 -9999 -9999 -9999 -9999 -9999 -9999 -9999 -9999 -9999 -9999 -9999 -9999 -9999 -9999 -9999 -9999 -9999 -9999 -9999 -9999 -9999 -9999 -9999 -9999 -9999 -9999 -9999 -9999 -9999 -9999 -9999 -9999 -9999 -9999 -9999 -9999 -9999 -9999 -9999 -9999 -9999 -9999 -0.52170473337173461914 -0.52127015590667724609 -0.56137526035308837891 -0.66006451845169067383 -0.83348715305328369141 -1.0336592197418212891 -1.2001625299453735352 -1.3320316076278686523 -1.4055562019348144531 -1.4280757904052734375 -1.4386389255523681641 -1.4408599138259887695 -1.4676612615585327148 -1.4854094982147216797 -1.4919348955154418945 -1.5689650774002075195 -1.6844589710235595703 -1.7839996814727783203 -1.8407418727874755859 -1.8740282058715820313 -1.9077821969985961914 -1.9393039941787719727 -1.9835265874862670898 -2.0212600231170654297 -2.0316746234893798828 -2.0319166183471679688 -2.0440723896026611328 -2.0696568489074707031 -2.0738899707794189453 -2.0460295677185058594 -2.0184533596038818359 -2.0093266963958740234 -2.0181837081909179688 -2.0396070480346679688 -2.0648956298828125 -2.0882203578948974609 -2.1119701862335205078 -2.1345589160919189453 -2.1574320793151855469 -2.1749920845031738281 -2.1932842731475830078 -2.2134118080139160156 -2.228557586669921875 -2.236217498779296875 -2.2402052879333496094 -2.2313172817230224609 -2.2030215263366699219 -2.1987383365631103516 -2.2178559303283691406 -2.2347023487091064453 -2.2368471622467041016 -2.2368011474609375 -2.2358274459838867188 -2.2335038185119628906 -2.2286965847015380859 -2.2220075130462646484 -2.2209427356719970703 -2.2223184108734130859 -2.2064847946166992188 -2.1857576370239257813 -2.1727855205535888672 -2.1593849658966064453 -2.0930464267730712891 -1.9384359121322631836 -1.7595224380493164063 -1.5585644245147705078 -1.3541976213455200195 -1.2360407114028930664 -1.1898984909057617188 -1.1684764623641967773 -1.1355644464492797852 -1.0689920186996459961 -1.0090737342834472656 -0.99966871738433837891 -0.98231834173202514648 -0.96270704269409179688 -0.94745707511901855469 -0.93331813812255859375 -0.9208685755729675293 -0.92473709583282470703 -0.95343345403671264648 -0.995822906494140625 -1.0134767293930053711 -1.0191192626953125 -1.0175104141235351563 -1.0106585025787353516 -1.0062621831893920898 -1.0033063888549804688 -1.0089741945266723633 -1.0270872116088867188 -1.0564026832580566406 -1.0932496786117553711 -1.1358076333999633789 -1.1655237674713134766 -1.1794623136520385742 -1.1699999570846557617 -1.153369903564453125 -1.1407501697540283203 -1.1106094121932983398 -1.0624570846557617188 -1.024889826774597168 -1.0142863988876342773 -1.0063517093658447266 -0.99018889665603637695 -0.97374063730239868164 -0.97004270553588867188 -0.97715270519256591797 -0.97238683700561523438 -0.95022141933441162109 -0.90066915750503540039 -0.88825190067291259766 -1.0028978586196899414 -1.2337019443511962891 -1.4369187355041503906 -1.6017197370529174805 -1.7799031734466552734 -1.9021347761154174805 -1.9921163320541381836 -1.977434992790222168 -1.9061337709426879883 -1.8474657535552978516 -1.7881149053573608398 -1.7152578830718994141 -1.6003874540328979492 -1.4618569612503051758 -1.3697142601013183594 -1.3010782003402709961 -1.2122248411178588867 -1.1034309864044189453 -0.93098127841949462891 -0.73539531230926513672 -0.69310575723648071289 -0.76401221752166748047 -0.80036646127700805664 -0.771389007568359375 -0.67892098426818847656 -0.62141579389572143555
-9999 -9999 -9999 -9999 -9999 -9999 -9999 -9999 -9999 -9999 -9999 -9999 -9999 -9999 -9999 -9999 -9999 -9999 -9999 -9999 -9999 -9999 -9999 -9999 -9999 -9999 -9999 -9999 -9999 -9999 -9999 -9999 -9999 -9999 -9999 -9999 -9999 -9999 -9999 -9999 -9999 -9999 -9999 -9999 -9999 -0.52589464187622070313 -0.53056353330612182617 -0.57061111927032470703 -0.66664528846740722656 -0.8227742314338684082 -0.97780233621597290039 -1.1068781614303588867 -1.2018160820007324219 -1.2356953620910644531 -1.2361885309219360352 -1.2784188985824584961 -1.3484947681427001953 -1.4312225580215454102 -1.4955328702926635742 -1.5333322286605834961 -1.5884577035903930664 -1.7125463485717773438 -1.8440849781036376953 -1.8916716575622558594 -1.8951315879821777344 -1.9022327661514282227 -1.9204312562942504883 -1.9585578441619873047 -2.0050225257873535156 -2.0306563377380371094 -2.0312793254852294922 -2.0346667766571044922 -2.0446770191192626953 -2.0442483425140380859 -2.0202267169952392578 -1.9931216239929199219 -1.9776480197906494141 -1.9866217374801635742 -2.0093173980712890625 -2.0378177165985107422 -2.061664581298828125 -2.0845844745635986328 -2.1089224815368652344 -2.1393456459045410156 -2.1707506179809570313 -2.1928358078002929688 -2.2153809070587158203 -2.2300777435302734375 -2.2368514537811279297 -2.2401037216186523438 -2.2357578277587890625 -2.2236998081207275391 -2.2206137180328369141 -2.2296664714813232422 -2.2363109588623046875 -2.2368128299713134766 -2.2364547252655029297 -2.2293732166290283203 -2.2258014678955078125 -2.2326076030731201172 -2.2351231575012207031 -2.2363550662994384766 -2.2339978218078613281 -2.2127363681793212891 -2.1851475238800048828 -2.1646847724914550781 -2.1263358592987060547 -2.0555911064147949219 -1.9390783309936523438 -1.7875368595123291016 -1.59578704833984375 -1.3246349096298217773 -1.1259474754333496094 -1.0681090354919433594 -1.0683357715606689453 -1.0715944766998291016 -1.0458501577377319336 -1.0065510272979736328 -0.99143177270889282227 -0.98386985063552856445 -0.97910338640213012695 -0.96938854455947875977 -0.94722789525985717773 -0.92956072092056274414 -0.93571776151657104492 -0.96627986431121826172 -1.0039055347442626953 -1.0223135948181152344 -1.0321087837219238281 -1.0285619497299194336 -1.0161756277084350586 -1.0110328197479248047 -1.0164823532104492188 -1.0274813175201416016 -1.0434409379959106445 -1.0682233572006225586 -1.1082863807678222656 -1.1560397148132324219 -1.1891446113586425781 -1.2058082818984985352 -1.1875110864639282227 -1.1633735895156860352 -1.1421338319778442383 -1.1133729219436645508 -1.077305912971496582 -1.0522916316986083984 -1.0377162694931030273 -1.0254552364349365234 -1.0096070766448974609 -0.99521839618682861328 -0.9944947361946105957 -1.0029817819595336914 -0.99954068660736083984 -0.97921073436737060547 -0.9509537816047668457 -0.96236252784729003906 -1.1281530857086181641 -1.3587841987609863281 -1.5315501689910888672 -1.6850286722183227539 -1.8301674127578735352 -1.9108011722564697266 -2.0063617229461669922 -2.0156056880950927734 -1.9693319797515869141 -1.9147673845291137695 -1.8659904003143310547 -1.7644914388656616211 -1.6530684232711791992 -1.5297235250473022461 -1.424740910530090332 -1.3359758853912353516 -1.2624515295028686523 -1.1901459693908691406 -1.0623760223388671875 -0.84547394514083862305 -0.76106065511703491211 -0.79445636272430419922 -0.82021152973175048828 -0.77583873271942138672 -0.68756145238876342773 -0.62649846076965332031
-9999 -9999 -9999 -9999 -9999 -9999 -9999 -9999 -9999 -9999 -9999 -9999 -9999 -9999 -9999 -9999 -9999 -9999 -9999 -9999 -9999 -9999 -9999 -9999 -9999 -9999 -9999 -9999 -9999 -9999 -9999 -9999 -9999 -9999 -9999 -9999 -9999 -9999 -9999 -9999 -9999 -9999 -9999 -9999 -9999 -0.53694909811019897461 -0.55281883478164672852 -0.58843404054641723633 -0.68376630544662475586 -0.81306231021881103516 -0.91967386007308959961 -1.0004357099533081055 -1.0523129701614379883 -1.0460268259048461914 -1.0702850818634033203 -1.1975656747817993164 -1.3252055644989013672 -1.4280730485916137695 -1.5238128900527954102 -1.5991389751434326172 -1.6397726535797119141 -1.7318135499954223633 -1.8378430604934692383 -1.8893433809280395508 -1.8952367305755615234 -1.8984086513519287109 -1.9112442731857299805 -1.9464766979217529297 -1.9937939643859863281 -2.0273563861846923828 -2.0242486000061035156 -2.0217742919921875 -2.0254166126251220703 -2.0158555507659912109 -1.9832050800323486328 -1.9577475786209106445 -1.9450104236602783203 -1.948984980583190918 -1.9670472145080566406 -1.9996906518936157227 -2.0331943035125732422 -2.0596690177917480469 -2.0835926532745361328 -2.111480712890625 -2.15108489990234375 -2.1847946643829345703 -2.2113428115844726563 -2.2269818782806396484 -2.2354602813720703125 -2.2372429370880126953 -2.2368428707122802734 -2.2352838516235351563 -2.2351579666137695313 -2.2373981475830078125 -2.2375764846801757813 -2.236904144287109375 -2.23632049560546875 -2.2271292209625244141 -2.22133636474609375 -2.2332365512847900391 -2.2367687225341796875 -2.2367086410522460938 -2.2297220230102539063 -2.20276641845703125 -2.173419952392578125 -2.1465299129486083984 -2.1010291576385498047 -2.04212188720703125 -1.9559776782989501953 -1.8440941572189331055 -1.7055728435516357422 -1.5260114669799804688 -1.3548254966735839844 -1.2334055900573730469 -1.1810790300369262695 -1.1502699851989746094 -1.1122232675552368164 -1.0550682544708251953 -1.0161556005477905273 -1.0061408281326293945 -1.0100951194763183594 -1.0051971673965454102 -0.98153614997863769531 -0.95661550760269165039 -0.95990997552871704102 -0.98518615961074829102 -1.0151512622833251953 -1.0318675041198730469 -1.0448921918869018555 -1.0390318632125854492 -1.0258885622024536133 -1.023224949836730957 -1.029621124267578125 -1.041386723518371582 -1.0555900335311889648 -1.0815343856811523438 -1.1251696348190307617 -1.1717208623886108398 -1.2015222311019897461 -1.2090134620666503906 -1.1892780065536499023 -1.1640558242797851563 -1.1400625705718994141 -1.1174485683441162109 -1.0909912586212158203 -1.0737987756729125977 -1.0584874153137207031 -1.0439783334732055664 -1.0271105766296386719 -1.0115944147109985352 -1.0106968879699707031 -1.0204055309295654297 -1.0224908590316772461 -1.0073893070220947266 -0.98999452590942382813 -1.0183186531066894531 -1.1909492015838623047 -1.4190109968185424805 -1.5777807235717773438 -1.7268596887588500977 -1.8746050596237182617 -1.9551988840103149414 -2.0227687358856201172 -2.03035736083984375 -2.0096197128295898438 -1.9294945001602172852 -1.841050267219543457 -1.7679742574691772461 -1.697140812873840332 -1.5686466693878173828 -1.4426131248474121094 -1.3385102748870849609 -1.2674305438995361328 -1.1880403757095336914 -1.0505608320236206055 -0.85967314243316650391 -0.79681175947189331055 -0.81593263149261474609 -0.87567555904388427734 -0.80212903022766113281 -0.6981258392333984375 -0.62852418422698974609
-9999 -9999 -9999 -9999 -9999 -9999 -9999 -9999 -9999 -9999 -9999 -9999 -9999 -9999 -9999 -9999 -9999 -9999 -9999 -9999 -9999 -9999 -9999 -9999 -9999 -9999 -9999 -9999 -9999 -9999 -9999 -9999 -9999 -9999 -9999 -9999 -9999 -9999 -9999 -9999 -9999 -9999 -9999 -9999 -9999 -0.55148863792419433594 -0.58222466707229614258 -0.60759299993515014648 -0.7030379176139831543 -0.79497414827346801758 -0.84852379560470581055 -0.89652013778686523438 -0.89877229928970336914 -0.844608306884765625 -0.92066711187362670898 -1.1381057500839233398 -1.3144387006759643555 -1.4303990602493286133 -1.5328713655471801758 -1.613189697265625 -1.6709427833557128906 -1.7358555793762207031 -1.7861654758453369141 -1.8460633754730224609 -1.883824467658996582 -1.8964875936508178711 -1.9130822420120239258 -1.9411330223083496094 -1.9765470027923583984 -2.0031876564025878906 -1.9920871257781982422 -1.9835760593414306641 -1.9782377481460571289 -1.9594463109970092773 -1.9251968860626220703 -1.9108643531799316406 -1.9110950231552124023 -1.9091439247131347656 -1.9145761728286743164 -1.9477152824401855469 -1.9911708831787109375 -2.0278842449188232422 -2.0565690994262695313 -2.0842103958129882813 -2.1214210987091064453 -2.1625964641571044922 -2.1936025619506835938 -2.2198920249938964844 -2.2355325222015380859 -2.2368142604827880859 -2.2368144989013671875 -2.2371966838836669922 -2.2390878200531005859 -2.2415957450866699219 -2.2423806190490722656 -2.2392511367797851563 -2.2367603778839111328 -2.2340865135192871094 -2.2327234745025634766 -2.2363514900207519531 -2.2363345623016357422 -2.23110198974609375 -2.2094242572784423828 -2.1752541065216064453 -2.1524977684020996094 -2.1408932209014892578 -2.1041970252990722656 -2.0488984584808349609 -1.9826793670654296875 -1.9096589088439941406 -1.8263152837753295898 -1.7220231294631958008 -1.6085000038146972656 -1.5078624486923217773 -1.4415587186813354492 -1.3891215324401855469 -1.3463555574417114258 -1.2700647115707397461 -1.1529836654663085938 -1.0651392936706542969 -1.0593935251235961914 -1.0585533380508422852 -1.0234105587005615234 -0.9883206486701965332 -0.98808830976486206055 -1.0046056509017944336 -1.0277993679046630859 -1.04294586181640625 -1.0539708137512207031 -1.0475724935531616211 -1.0372887849807739258 -1.0360504388809204102 -1.0418137311935424805 -1.053868412971496582 -1.0675418376922607422 -1.0973598957061767578 -1.1417108774185180664 -1.1873438358306884766 -1.2093341350555419922 -1.2077417373657226563 -1.1880258321762084961 -1.1624866724014282227 -1.1397118568420410156 -1.1274825334548950195 -1.1101752519607543945 -1.0947284698486328125 -1.0773003101348876953 -1.0624452829360961914 -1.0458484888076782227 -1.0319070816040039063 -1.0326726436614990234 -1.0453457832336425781 -1.0497168302536010742 -1.0335454940795898438 -1.011304020881652832 -1.0126780271530151367 -1.1908626556396484375 -1.4357576370239257813 -1.5991262197494506836 -1.741288304328918457 -1.897732853889465332 -1.9861894845962524414 -2.0306344032287597656 -2.0336284637451171875 -2.0280356407165527344 -1.9503614902496337891 -1.8182210922241210938 -1.7389781475067138672 -1.6718780994415283203 -1.5398204326629638672 -1.4295761585235595703 -1.3415483236312866211 -1.2587065696716308594 -1.1422586441040039063 -0.96663379669189453125 -0.81223112344741821289 -0.79116898775100708008 -0.82772988080978393555 -0.91037881374359130859 -0.81578034162521362305 -0.70899909734725952148 -0.629894256591796875
-9999 -9999 -9999 -9999 -9999 -9999 -9999 -9999 -9999 -9999 -9999 -9999 -9999 -9999 -9999 -9999 -9999 -9999 -9999 -9999 -9999 -9999 -9999 -9999 -9999 -9999 -9999 -9999 -9999 -9999 -9999 -9999 -9999 -9999 -9999 -9999 -9999 -9999 -9999 -9999 -9999 -9999 -9999 -9999 -9999 -9999 -0.60734343528747558594 -0.62134534120559692383 -0.73018211126327514648 -0.79726803302764892578 -0.80696350336074829102 -0.81133562326431274414 -0.78131777048110961914 -0.74843233823776245117 -0.87225866317749023438 -1.1116811037063598633 -1.2990243434906005859 -1.4207288026809692383 -1.533852696418762207 -1.6215240955352783203 -1.6836376190185546875 -1.7413606643676757813 -1.7610149383544921875 -1.8001644611358642578 -1.8588467836380004883 -1.893145442008972168 -1.9082151651382446289 -1.9267406463623046875 -1.9467225074768066406 -1.9554935693740844727 -1.9431204795837402344 -1.9353311061859130859 -1.9255667924880981445 -1.8965250253677368164 -1.8569511175155639648 -1.8554846048355102539 -1.8789235353469848633 -1.8813228607177734375 -1.8830549716949462891 -1.9107965230941772461 -1.9576852321624755859 -2.0040183067321777344 -2.0411028861999511719 -2.0726375579833984375 -2.1103770732879638672 -2.1529576778411865234 -2.185760498046875 -2.2118582725524902344 -2.2295506000518798828 -2.2345051765441894531 -2.2367589473724365234 -2.237941741943359375 -2.2417161464691162109 -2.2469747066497802734 -2.2515902519226074219 -2.2511322498321533203 -2.2407677173614501953 -2.2399034500122070313 -2.2445440292358398438 -2.2390768527984619141 -2.2273244857788085938 -2.2007470130920410156 -2.1807913780212402344 -2.1548607349395751953 -2.1445231437683105469 -2.1729147434234619141 -2.1513974666595458984 -2.0904891490936279297 -2.0369613170623779297 -1.999890446662902832 -1.9537514448165893555 -1.8904558420181274414 -1.8234254121780395508 -1.7570867538452148438 -1.7063122987747192383 -1.6572017669677734375 -1.609808802604675293 -1.5459358692169189453 -1.4488104581832885742 -1.3287323713302612305 -1.2873098850250244141 -1.2668634653091430664 -1.1410894393920898438 -1.0253713130950927734 -1.0050666332244873047 -1.0181093215942382813 -1.0429970026016235352 -1.0561546087265014648 -1.0630358457565307617 -1.0555241107940673828 -1.0457950830459594727 -1.0453408956527709961 -1.0517358779907226563 -1.0637614727020263672 -1.0790475606918334961 -1.109555363655090332 -1.1490181684494018555 -1.1985741853713989258 -1.2222299575805664063 -1.2155756950378417969 -1.1946452856063842773 -1.1691147089004516602 -1.1471747159957885742 -1.1406563520431518555 -1.131296992301940918 -1.1178014278411865234 -1.1017758846282958984 -1.0863795280456542969 -1.0675879716873168945 -1.0570322275161743164 -1.0581070184707641602 -1.0683432817459106445 -1.0715690851211547852 -1.0550779104232788086 -1.0212192535400390625 -0.97474455833435058594 -1.1217327117919921875 -1.4049525260925292969 -1.6046216487884521484 -1.7560851573944091797 -1.9036738872528076172 -1.9872539043426513672 -2.0357861518859863281 -2.0527775287628173828 -2.0554311275482177734 -1.9784259796142578125 -1.832614898681640625 -1.710287928581237793 -1.6108087301254272461 -1.4982612133026123047 -1.4333373308181762695 -1.3543562889099121094 -1.2472757101058959961 -1.1102217435836791992 -0.91052478551864624023 -0.76883733272552490234 -0.76100116968154907227 -0.83644604682922363281 -0.91769069433212280273 -0.81587439775466918945 -0.71441644430160522461 -0.6267134547233581543
-9999 -9999 -9999 -9999 -9999 -9999 -9999 -9999 -9999 -9999 -9999 -9999 -9999 -9999 -9999 -9999 -9999 -9999 -9999 -9999 -9999 -9999 -9999 -9999 -9999 -9999 -9999 -9999 -9999 -9999 -9999 -9999 -9999 -9999 -9999 -9999 -9999 -9999 -9999 -9999 -9999 -9999 -9999 -9999 -9999 -9999 -9999 -9999 -9999 -0.80182099342346191406 -0.79950106143951416016 -0.79461669921875 -0.77814948558807373047 -0.78306090831756591797 -0.9331677556037902832 -1.1300028562545776367 -1.2949854135513305664 -1.4160689115524291992 -1.5297517776489257813 -1.6202157735824584961 -1.6787382364273071289 -1.7342468500137329102 -1.7610390186309814453 -1.7996391057968139648 -1.8559912443161010742 -1.8925706148147583008 -1.9001748561859130859 -1.9091005325317382813 -1.9151337146759033203 -1.9029740095138549805 -1.8754798173904418945 -1.8597742319107055664 -1.8421438932418823242 -1.797722935676574707 -1.7576242685317993164 -1.7826007604598999023 -1.8144843578338623047 -1.817461848258972168 -1.8331357240676879883 -1.8760706186294555664 -1.9325106143951416016 -1.9907873868942260742 -2.0361065864562988281 -2.0680291652679443359 -2.1073632240295410156 -2.1486623287200927734 -2.1786425113677978516 -2.1928758621215820313 -2.202915191650390625 -2.2195837497711181641 -2.2355875968933105469 -2.2381346225738525391 -2.2434775829315185547 -2.2525722980499267578 -2.2646052837371826172 -2.2763297557830810547 -2.2663912773132324219 -2.266632080078125 -2.2719485759735107422 -2.2458167076110839844 -2.2214961051940917969 -2.1930139064788818359 -2.1732854843139648438 -2.1682081222534179688 -2.1787595748901367188 -2.2145459651947021484 -2.20458221435546875 -2.1573309898376464844 -2.1114323139190673828 -2.0799276828765869141 -2.0484404563903808594 -2.0116119384765625 -1.9708195924758911133 -1.9263755083084106445 -1.8854095935821533203 -1.8494817018508911133 -1.8088619709014892578 -1.7393116950988769531 -1.6487369537353515625 -1.5419348478317260742 -1.4906343221664428711 -1.442637324333190918 -1.2554250955581665039 -1.057070612907409668 -1.0168486833572387695 -1.0342082977294921875 -1.0624967813491821289 -1.0710361003875732422 -1.0723905563354492188 -1.0635434389114379883 -1.05258941650390625 -1.0527566671371459961 -1.0607318878173828125 -1.0726797580718994141 -1.0904290676116943359 -1.1188009977340698242 -1.1524471044540405273 -1.2058620452880859375 -1.2514263391494750977 -1.2446706295013427734 -1.2130582332611083984 -1.1837049722671508789 -1.1619075536727905273 -1.1547129154205322266 -1.1497745513916015625 -1.1410710811614990234 -1.1269519329071044922 -1.1094168424606323242 -1.0856258869171142578 -1.0728199481964111328 -1.0740150213241577148 -1.0811911821365356445 -1.0817272663116455078 -1.0702110528945922852 -1.02935028076171875 -0.96919476985931396484 -1.0771970748901367188 -1.3673658370971679688 -1.5946779251098632813 -1.7676955461502075195 -1.9086531400680541992 -1.9833083152770996094 -2.0460774898529052734 -2.0875906944274902344 -2.1079778671264648438 -2.0121793746948242188 -1.8522310256958007813 -1.7107865810394287109 -1.6078451871871948242 -1.5366750955581665039 -1.4647201299667358398 -1.3698564767837524414 -1.2404932975769042969 -1.0840864181518554688 -0.86790090799331665039 -0.75910729169845581055 -0.759166717529296875 -0.84980088472366333008 -0.92688149213790893555 -0.83148705959320068359 -0.72990459203720092773 -0.61851072311401367188
-9999 -9999 -9999 -9999 -9999 -9999 -9999 -9999 -9999 -9999 -9999 -9999 -9999 -9999 -9999 -9999 -9999 -9999 -9999 -9999 -9999 -9999 -9999 -9999 -9999 -9999 -9999 -9999 -9999 -9999 -9999 -9999 -9999 -9999 -9999 -9999 -9999 -9999 -9999 -9999 -9999 -9999 -9999 -9999 -9999 -9999 -9999 -9999 -9999 -9999 -0.80186706781387329102 -0.8002840876579284668 -0.78704351186752319336 -0.78572642803192138672 -0.91857445240020751953 -1.0954504013061523438 -1.2561064958572387695 -1.3795020580291748047 -1.4807130098342895508 -1.5705105066299438477 -1.6403810977935791016 -1.6891815662384033203 -1.7381312847137451172 -1.783976435661315918 -1.8310092687606811523 -1.8756766319274902344 -1.8921916484832763672 -1.8924219608306884766 -1.8824923038482666016 -1.8483141660690307617 -1.8002607822418212891 -1.7531368732452392578 -1.7206641435623168945 -1.6837835311889648438 -1.6593544483184814453 -1.7070969343185424805 -1.7461310625076293945 -1.7539154291152954102 -1.7838242053985595703 -1.8470772504806518555 -1.9127534627914428711 -1.9772053956985473633 -2.0305767059326171875 -2.0604808330535888672 -2.0970695018768310547 -2.1340665817260742188 -2.1648435592651367188 -2.1743001937866210938 -2.1766326427459716797 -2.1980741024017333984 -2.2267110347747802734 -2.2355597019195556641 -2.2413899898529052734 -2.2539122104644775391 -2.2722287178039550781 -2.2950735092163085938 -2.2989838123321533203 -2.2982187271118164063 -2.2843537330627441406 -2.2502434253692626953 -2.2289156913757324219 -2.2103061676025390625 -2.2007510662078857422 -2.2165143489837646484 -2.2321743965148925781 -2.2408738136291503906 -2.2350561618804931641 -2.2158050537109375 -2.1860229969024658203 -2.1545279026031494141 -2.1334745883941650391 -2.1217212677001953125 -2.1034061908721923828 -2.0673305988311767578 -2.0305566787719726563 -2.0062658786773681641 -1.9668465852737426758 -1.8916419744491577148 -1.7906441688537597656 -1.6475480794906616211 -1.5675323009490966797 -1.5004154443740844727 -1.2768062353134155273 -1.0710244178771972656 -1.0477316379547119141 -1.0595301389694213867 -1.0945351123809814453 -1.101346135139465332 -1.0907129049301147461 -1.0763504505157470703 -1.0659363269805908203 -1.063119053840637207 -1.0686233043670654297 -1.0814731121063232422 -1.0995528697967529297 -1.1235635280609130859 -1.1537379026412963867 -1.2040166854858398438 -1.257811427116394043 -1.2708245515823364258 -1.2365603446960449219 -1.2003636360168457031 -1.1810530424118041992 -1.1718895435333251953 -1.1647298336029052734 -1.1579964160919189453 -1.1510143280029296875 -1.1387246847152709961 -1.1167302131652832031 -1.0985369682312011719 -1.0991873741149902344 -1.1062203645706176758 -1.1010770797729492188 -1.0837763547897338867 -1.0430389642715454102 -0.97885268926620483398 -1.02417755126953125 -1.2919685840606689453 -1.5560703277587890625 -1.7464802265167236328 -1.9086408615112304688 -1.9873104095458984375 -2.0611531734466552734 -2.1180460453033447266 -2.1536314487457275391 -2.0721113681793212891 -1.91980743408203125 -1.7868553400039672852 -1.6896494626998901367 -1.6132285594940185547 -1.5103489160537719727 -1.3813978433609008789 -1.2309457063674926758 -1.0889986753463745117 -0.89357334375381469727 -0.79336839914321899414 -0.82133096456527709961 -0.87312537431716918945 -0.93048536777496337891 -0.93560492992401123047 -9999 -9999
-9999 -9999 -9999 -9999 -9999 -9999 -9999 -9999 -9999 -9999 -9999 -9999 -9999 -9999 -9999 -9999 -9999 -9999 -9999 -9999 -9999 -9999 -9999 -9999 -9999 -9999 -9999 -9999 -9999 -9999 -9999 -9999 -9999 -9999 -9999 -9999 -9999 -9999 -9999 -9999 -9999 -9999 -9999 -9999 -9999 -9999 -9999 -9999 -9999 -9999 -9999 -0.79295259714126586914 -0.77253073453903198242 -0.77253615856170654297 -0.88284957408905029297 -1.0463273525238037109 -1.1905180215835571289 -1.3178747892379760742 -1.4268848896026611328 -1.5216726064682006836 -1.5936292409896850586 -1.6330127716064453125 -1.6812528371810913086 -1.7265554666519165039 -1.7728285789489746094 -1.8229788541793823242 -1.8504788875579833984 -1.842978358268737793 -1.8214701414108276367 -1.7862465381622314453 -1.7363239526748657227 -1.6593660116195678711 -1.5999431610107421875 -1.5769562721252441406 -1.5777959823608398438 -1.613924860954284668 -1.6602355241775512695 -1.6927499771118164063 -1.7397879362106323242 -1.8035181760787963867 -1.8704279661178588867 -1.936931610107421875 -1.9984863996505737305 -2.0410192012786865234 -2.0755612850189208984 -2.1031558513641357422 -2.1290018558502197266 -2.1437070369720458984 -2.1520848274230957031 -2.1715102195739746094 -2.198001861572265625 -2.2178287506103515625 -2.2314035892486572266 -2.2432384490966796875 -2.2575314044952392578 -2.2801172733306884766 -2.3022572994232177734 -2.3010830879211425781 -2.2823383808135986328 -2.2566845417022705078 -2.238109588623046875 -2.2294991016387939453 -2.2374546527862548828 -2.2640287876129150391 -2.2758591175079345703 -2.2634916305541992188 -2.2441778182983398438 -2.2356028556823730469 -2.2258746623992919922 -2.1988816261291503906 -2.1866829395294189453 -2.1922900676727294922 -2.1890544891357421875 -2.1474909782409667969 -2.11224365234375 -2.0996563434600830078 -2.0737600326538085938 -2.0108540058135986328 -1.9045685529708862305 -1.7476867437362670898 -1.6434922218322753906 -1.5609639883041381836 -1.3423560857772827148 -1.1065422296524047852 -1.0677080154418945313 -1.0854279994964599609 -1.1537419557571411133 -1.1479812860488891602 -1.1149276494979858398 -1.0931692123413085938 -1.0786572694778442383 -1.0741901397705078125 -1.0774935483932495117 -1.0914075374603271484 -1.1065430641174316406 -1.1252605915069580078 -1.1501624584197998047 -1.1999719142913818359 -1.2541203498840332031 -1.2800370454788208008 -1.25896453857421875 -1.2203404903411865234 -1.1978172063827514648 -1.1883611679077148438 -1.1812577247619628906 -1.1757895946502685547 -1.1703377962112426758 -1.1619793176651000977 -1.1510753631591796875 -1.1389240026473999023 -1.1326143741607666016 -1.1328874826431274414 -1.1204633712768554688 -1.0935671329498291016 -1.0541089773178100586 -0.99222004413604736328 -0.98652386665344238281 -1.2247645854949951172 -1.5246385335922241211 -1.7269196510314941406 -1.9049651622772216797 -1.9913517236709594727 -2.0763838291168212891 -2.1371426582336425781 -2.1646404266357421875 -2.1330585479736328125 -1.9905179738998413086 -1.8234158754348754883 -1.7345890998840332031 -1.6646722555160522461 -1.5885407924652099609 -1.2822942733764648438 -1.1973627805709838867 -1.0990092754364013672 -0.96248394250869750977 -0.83745098114013671875 -0.88339430093765258789 -0.93278425931930541992 -9999 -9999 -9999 -9999
-9999 -9999 -9999 -9999 -9999 -9999 -9999 -9999 -9999 -9999 -9999 -9999 -9999 -9999 -9999 -9999 -9999 -9999 -9999 -9999 -9999 -9999 -9999 -9999 -9999 -9999 -9999 -9999 -9999 -9999 -9999 -9999 -9999 -9999 -9999 -9999 -9999 -9999 -9999 -9999 -9999 -9999 -9999 -9999 -9999 -9999 -9999 -9999 -9999 -9999 -9999 -9999 -0.82462209463119506836 -0.88917428255081176758 -0.96064901351928710938 -1.0554091930389404297 -1.1592584848403930664 -1.2742356061935424805 -1.3728219270706176758 -1.4521628618240356445 -1.4939888715744018555 -1.5286067724227905273 -1.56719970703125 -1.619641423225402832 -1.6880306005477905273 -1.7495714426040649414 -1.7623239755630493164 -1.7469229698181152344 -1.7245842218399047852 -1.6875909566879272461 -1.6557421684265136719 -1.5799040794372558594 -1.4992202520370483398 -1.472605586051940918 -1.4788451194763183594 -1.5150415897369384766 -1.5573434829711914063 -1.5966525077819824219 -1.6403371095657348633 -1.6973236799240112305 -1.78427886962890625 -1.870528101921081543 -1.9469189643859863281 -2.0089719295501708984 -2.0467934608459472656 -2.0627491474151611328 -2.0741107463836669922 -2.0858728885650634766 -2.1085937023162841797 -2.1401016712188720703 -2.1721558570861816406 -2.1954295635223388672 -2.2196660041809082031 -2.2357347011566162109 -2.23987579345703125 -2.2475159168243408203 -2.2878155708312988281 -2.3020844459533691406 -2.2860434055328369141 -2.2624049186706542969 -2.2420232295989990234 -2.2375206947326660156 -2.2669198513031005859 -2.2987723350524902344 -2.3021442890167236328 -2.2816889286041259766 -2.2469568252563476563 -2.2236692905426025391 -2.1982579231262207031 -2.1829340457916259766 -2.1987116336822509766 -2.2288665771484375 -2.2325661182403564453 -2.209987640380859375 -2.1895596981048583984 -2.1922335624694824219 -2.1767017841339111328 -2.1226253509521484375 -2.0329422950744628906 -1.9125133752822875977 -1.8039613962173461914 -1.7194129228591918945 -1.4858648777008056641 -1.2245230674743652344 -1.1311519145965576172 -1.1893514394760131836 -1.2929832935333251953 -1.187096714973449707 -1.1286597251892089844 -1.1103725433349609375 -1.0958280563354492188 -1.089136958122253418 -1.0914120674133300781 -1.1006432771682739258 -1.1111710071563720703 -1.1250202655792236328 -1.1408817768096923828 -1.1897597312927246094 -1.2574350833892822266 -1.2939631938934326172 -1.2741166353225708008 -1.2395676374435424805 -1.2145040035247802734 -1.2044012546539306641 -1.1972182989120483398 -1.1925979852676391602 -1.1903893947601318359 -1.1846668720245361328 -1.1757882833480834961 -1.1690514087677001953 -1.1614410877227783203 -1.1522436141967773438 -1.1356445550918579102 -1.1006799936294555664 -1.0595351457595825195 -1.0056730508804321289 -0.96725440025329589844 -1.1725724935531616211 -1.5046619176864624023 -1.7084445953369140625 -1.8982297182083129883 -1.9883222579956054688 -2.0858833789825439453 -2.1537466049194335938 -2.1668145656585693359 -2.1680920124053955078 -2.1500980854034423828 -9999 -9999 -9999 -9999 -9999 -9999 -1.0735422372817993164 -0.9972451329231262207 -0.89117372035980224609 -0.84785979986190795898 -9999 -9999 -9999 -9999 -9999
-9999 -9999 -9999 -9999 -9999 -9999 -9999 -9999 -9999 -9999 -9999 -9999 -9999 -9999 -9999 -9999 -9999 -9999 -9999 -9999 -9999 -9999 -9999 -9999 -9999 -9999 -9999 -9999 -9999 -9999 -9999 -9999 -9999 -9999 -9999 -9999 -9999 -9999 -9999 -9999 -9999 -9999 -9999 -9999 -9999 -9999 -9999 -9999 -9999 -9999 -9999 -9999 -0.90276539325714111328 -0.99071735143661499023 -1.0367664098739624023 -1.0907986164093017578 -1.1578953266143798828 -1.2322394847869873047 -1.3012862205505371094 -1.3618700504302978516 -1.4051994085311889648 -1.4467856884002685547 -1.4823845624923706055 -1.5435088872909545898 -1.6271404027938842773 -1.6822273731231689453 -1.6765533685684204102 -1.642390131950378418 -1.6148087978363037109 -1.5804756879806518555 -1.5612335205078125 -1.4915198087692260742 -1.4230649471282958984 -1.3873397111892700195 -1.3791120052337646484 -1.4099476337432861328 -1.4282929897308349609 -1.4678632020950317383 -1.5323572158813476563 -1.5947357416152954102 -1.7002878189086914063 -1.8034348487854003906 -1.8969130516052246094 -1.9604536294937133789 -2.0048875808715820313 -2.0084009170532226563 -1.9982219934463500977 -2.0147876739501953125 -2.061298370361328125 -2.0997350215911865234 -2.1348822116851806641 -2.1695511341094970703 -2.2005643844604492188 -2.2215430736541748047 -2.2342374324798583984 -2.2532289028167724609 -2.2869155406951904297 -2.3045976161956787109 -2.2940881252288818359 -2.2698419094085693359 -2.2423970699310302734 -2.2275502681732177734 -2.2710640430450439453 -2.3056704998016357422 -2.3049938678741455078 -2.2887279987335205078 -2.2553248405456542969 -2.2189612388610839844 -2.1818630695343017578 -2.1579878330230712891 -2.1764018535614013672 -2.2290487289428710938 -2.2443110942840576172 -2.2511928081512451172 -2.2497255802154541016 -2.2471661567687988281 -2.2295410633087158203 -2.1857292652130126953 -2.1272115707397460938 -2.0609543323516845703 -1.980365753173828125 -1.8957184553146362305 -1.6698042154312133789 -1.4848234653472900391 -1.410821080207824707 -1.4480473995208740234 -1.3969568014144897461 -1.2030924558639526367 -1.1365877389907836914 -1.1229568719863891602 -1.1112842559814453125 -1.1023522615432739258 -1.1003537178039550781 -1.1051288843154907227 -1.1128238439559936523 -1.1240785121917724609 -1.1351482868194580078 -1.1710964441299438477 -1.2471616268157958984 -1.3040156364440917969 -1.2753161191940307617 -1.2496792078018188477 -1.2306625843048095703 -1.218973994255065918 -1.206554412841796875 -1.2015668153762817383 -1.199700474739074707 -1.1951005458831787109 -1.1905839443206787109 -1.1787889003753662109 -1.1680432558059692383 -1.1583939790725708008 -1.1469526290893554688 -1.1193908452987670898 -1.0613689422607421875 -1.0158178806304931641 -0.99705827236175537109 -9999 -9999 -9999 -9999 -9999 -9999 -9999 -9999 -9999 -9999 -9999 -9999 -9999 -9999 -9999 -9999 -9999 -9999 -9999 -9999 -9999 -9999 -9999 -9999 -9999
-9999 -9999 -9999 -9999 -9999 -9999 -9999 -9999 -9999 -9999 -9999 -9999 -9999 -9999 -9999 -9999 -9999 -9999 -9999 -9999 -9999 -9999 -9999 -9999 -9999 -9999 -9999 -9999 -9999 -9999 -9999 -9999 -9999 -9999 -9999 -9999 -9999 -9999 -9999 -9999 -9999 -9999 -9999 -9999 -9999 -9999 -9999 -9999 -9999 -9999 -9999 -9999 -9999 -1.0545225143432617188 -1.0849541425704956055 -1.093985438346862793 -1.1038950681686401367 -1.1187306642532348633 -1.1948676109313964844 -1.2761443853378295898 -1.3403800725936889648 -1.3846304416656494141 -1.4389673471450805664 -1.5207948684692382813 -1.6016225814819335938 -1.6188330650329589844 -1.5895152091979980469 -1.5222421884536743164 -1.4596058130264282227 -1.4271080493927001953 -1.4060475826263427734 -1.3605190515518188477 -1.3242771625518798828 -1.3002374172210693359 -1.2816762924194335938 -1.2835991382598876953 -1.2859848737716674805 -1.3307542800903320313 -1.4189740419387817383 -1.5152529478073120117 -1.636591792106628418 -1.7448805570602416992 -1.8328254222869873047 -1.8849748373031616211 -1.9198069572448730469 -1.9124053716659545898 -1.9002901315689086914 -1.9282121658325195313 -2.0078740119934082031 -2.0559289455413818359 -2.0872390270233154297 -2.1239848136901855469 -2.1462657451629638672 -2.1638770103454589844 -2.2004694938659667969 -2.2547402381896972656 -2.2943794727325439453 -2.3059089183807373047 -2.3035595417022705078 -2.2861957550048828125 -2.2547476291656494141 -2.2261188030242919922 -2.2805984020233154297 -2.3160254955291748047 -2.31722259521484375 -2.3027575016021728516 -2.2776927947998046875 -2.2520456314086914063 -2.2195589542388916016 -2.1737647056579589844 -2.1677126884460449219 -2.2227125167846679688 -2.2579145431518554688 -2.2863893508911132813 -2.2953536510467529297 -2.2808690071105957031 -2.2481582164764404297 -2.21616363525390625 -2.2022395133972167969 -2.1965754032135009766 -2.1434478759765625 -2.0554215908050537109 -1.8724814653396606445 -1.7726668119430541992 -1.7487736940383911133 -1.7179702520370483398 -1.5023266077041625977 -1.2719405889511108398 -1.1475412845611572266 -1.1345620155334472656 -1.1273125410079956055 -1.1156727075576782227 -1.1079189777374267578 -1.1077406406402587891 -1.1120748519897460938 -1.1209784746170043945 -1.1307039260864257813 -1.1395192146301269531 -9999 -9999 -9999 -9999 -1.2362302541732788086 -1.2337102890014648438 -9999 -9999 -9999 -9999 -9999 -9999 -9999 -9999 -9999 -9999 -9999 -9999 -9999 -9999 -9999 -9999 -9999 -9999 -9999 -9999 -9999 -9999 -9999 -9999 -9999 -9999 -9999 -9999 -9999 -9999 -9999 -9999 -9999 -9999 -9999 -9999 -9999 -9999
-9999 -9999 -9999 -9999 -9999 -9999 -9999 -9999 -9999 -9999 -9999 -9999 -9999 -9999 -9999 -9999 -9999 -9999 -9999 -9999 -9999 -9999 -9999 -9999 -9999 -9999 -9999 -9999 -9999 -9999 -9999 -9999 -9999 -9999 -9999 -9999 -9999 -9999 -9999 -9999 -9999 -9999 -9999 -9999 -9999 -9999 -9999 -9999 -9999 -9999 -9999 -9999 -9999 -9999 -1.0902348756790161133 -1.0902855396270751953 -1.0740894079208374023 -1.0686975717544555664 -1.1346925497055053711 -1.2335560321807861328 -1.3154524564743041992 -1.3489651679992675781 -1.3881381750106811523 -1.4862225055694580078 -1.5458750724792480469 -1.5365619659423828125 -1.4972221851348876953 -1.4077955484390258789 -1.2900407314300537109 -1.2299141883850097656 -1.2158019542694091797 -1.2120048999786376953 -1.2273962497711181641 -1.2269320487976074219 -1.1881856918334960938 -1.1511975526809692383 -1.1456212997436523438 -1.1998766660690307617 -1.3066034317016601563 -1.4369909763336181641 -1.5681589841842651367 -1.6741544008255004883 -1.7548639774322509766 -1.8068385124206542969 -1.8186987638473510742 -1.807448267936706543 -1.8171761035919189453 -1.8560813665390014648 -1.9277369976043701172 -1.9874428510665893555 -2.0259573459625244141 -2.0515069961547851563 -2.0700840950012207031 -2.1062235832214355469 -2.1626169681549072266 -2.2372455596923828125 -2.2938158512115478516 -2.3127961158752441406 -2.3130245208740234375 -2.3051586151123046875 -2.2907366752624511719 -2.2849273681640625 -2.3172299861907958984 -2.3422906398773193359 -2.3476338386535644531 -2.3293731212615966797 -2.3084363937377929688 -2.2917506694793701172 -2.2660520076751708984 -2.2309298515319824219 -2.2110056877136230469 -2.2290210723876953125 -2.2584917545318603516 -2.2994577884674072266 -2.3081457614898681641 -2.3033847808837890625 -2.2748742103576660156 -2.2640492916107177734 -2.2630860805511474609 -2.2520892620086669922 -2.2183403968811035156 -2.1457173824310302734 -2.0075032711029052734 -1.9495335817337036133 -1.9189592599868774414 -1.803906559944152832 -1.5619304180145263672 -1.3449846506118774414 -1.1689490079879760742 -1.142425537109375 -1.1361880302429199219 -1.1259161233901977539 -1.1142094135284423828 -1.1088037490844726563 -1.1095720529556274414 -1.1139808893203735352 -9999 -9999 -9999 -9999 -9999 -9999 -9999 -9999 -9999 -9999 -9999 -9999 -9999 -9999 -9999 -9999 -9999 -9999 -9999 -9999 -9999 -9999 -9999 -9999 -9999 -9999 -9999 -9999 -9999 -9999 -9999 -9999 -9999 -9999 -9999 -9999 -9999 -9999 -9999 -9999 -9999 -9999 -9999 -9999 -9999 -9999
